25,25.568,25.55,24,24.239,25,25.349,25,24,23.949,24.365,24.933,25,23,23.218,24.214,25,25,23,23.445,24.44,24.642,23,23.06,23.901,24.825,25,23,23,23.265,23.717,24,23.103,22.146,22.443,23.296,23.737,22.924,22,22.395,23,22.598,22.093,22,21.984,22.018,22.01,22,22,21.726,21.225,21,21.452,22,22.499,23,21,21,20.946,20.891,21,21,20.977,20.726,20.7,20.891,21,21,19,19.201,19.914,20.762,21,19.714,19.606,19.961,20,19.605,19.627,19.774,20.114,20,18.168,18.079,18.998,20,20,18.294,17.948,18.483,19,18.755,18,18,18.41,19,18,17,17.235,18.138,18.971,19,17,17,17.455,18,17,16.819,16.963,17.234,17.46,17,16.784,16.09,16.346,17.253,18,17,17,17,16.766,16.043,16,16.147,16.615,17,16.403,16,16,16,16.243,16,15,15,15.463,16,16.097,16,16,15,15,14.985,15,15,15.309,15.416,14.661,15,15,15,15,13.866,14,14.076,14,14,14.061,14.498,15,14.854,14,14,13,13.637,14,14,13,12,12.462,13,13.515,14,13,13,13.591,14,14,12,12,12.66,13,13,12,12,12.28,12.45,12,11.551,11.622,12,12.3,12.749,12.893,12.388,12,11.797,12.032,12,11.425,11,11,11.219,11.735,12,12,11,10.801,11.071,11,10.797,10,9.7736,10.222,11,11.212,11,10.459,10,10.601,11.318,12.001,12,12,10.997,10.804,10.952,11,11,11,10,10,10.522,11,11,11,10,9.9252,10.586,11,11,11,11,10.505,10.185,10,10.117,10,9.3692,9,9.6126,10.009,10,9.7905,9.7491,9.3857,9,9,9,9,8.3724,8,8.613,8.8646,9,9.2108,9,8.22,8.4979,9,9.1329,9,9.2767,9,8.3964,8.7394,9,9,9,9.2929,9,8.1421,7.9021,8,8,8,7,7.6286,8,8,8,8,8,7.7246,8,9.5014,11.505,12.953,13.451,12.601,10.729,8.5267,7,7,7,7,6.616,6.7864,7,7,7,7,6,6.3001,7,6.4212,7,7.064,7,7,7,7.0548,7,6,6,6,6,5.9816,6,6,6,6,5.8089,5,5.8224,6,6,6,6,5,4.8611,5,5.014,5,5,4,4.376,4.8693,5.3644,5,4.8688,5,4.4107,4,4.1604,4.7657,5,5,5,4.2365,4,4.1834,4.7119,5,4,3.6972,4,4,4,4.4206,4,3.7947,4,3,3,3,3.8132,4.0141,4.1149,4.1428,4.1442,4,2,2.3869,3.0694,3.6772,4,3.7744,2.4547,2,2.7414,3.1061,3.2607,3,2.6596,2,2,2.8227,3,2.9994,3,2.7673,2,2,3,2.3865,2.6518,2.9436,2.5454,2,2,2,2.1,2,2,2,3,2,2,1,1,1.9243,2,1,1,1,1,1,1,1.8483,2,1,1,1,1,1,1.4774,2,1,0,1,1,1,1,0,1,0.95423,0,0,1,0,-1,-0.40795,0,1,0.40301,0,-0.099512,-0.90642,-0.70345,0,0,0,0,0,-1,-1.2175,-1.116,-0.95478,-0.67611,0,-1,-1,-1,-1,-1,-1,0,-2,-2.7514,-3.5457,-4.308,-4.9821,-5.5638,-6.0665,-6.5059,-6.8966,-7.2504,-7.5769,-7.8836,-8.1766,-8.4604,-8.7388,-9.0145,-9.2897,-9.5661,-9.8451,-10.128,-10.414,-10.706,-11.003,-11.305,-11.613,-11.926,-12.245,-12.569,-12.898,-13.233,-13.572,-13.916,-14.265,-14.617,-14.974,-15.333,-15.697,-16.063,-16.431,-16.802,-17.175,-17.55,-17.926,-18.303,-18.682,-19.06,-19.439,-19.819,-20.198,-20.576,-20.954,-21.331,-21.708,-22.083,-22.456,-22.828,-23.198,-23.567,-23.933,-24.297,-24.659,-25.018,-25.375,-25.729,-26.081,-26.429,-26.775,-27.118,-27.458,-27.795,-28.128,-28.459,-28.786,-29.11,-29.43,-29.748,-30.061,-30.372,-30.679,-30.983,-31.283,-31.58,-31.874,-32.164,-32.451,-32.734,-33.014,-33.29,-33.563,-33.832,-34.099,-34.361,-34.621,-34.876,-35.129,-35.378,-35.624,-35.866,-36.105,-36.34,-36.572,-36.801,-37.026,-37.248,-37.466,-37.681
25,25.821,26,24,24.137,25,25.597,25,24.16,24.153,24.58,25,25,23,23.44,24.517,25,23,23,23.717,24.713,25,23.377,23.204,24.076,25.001,25,23.258,23.014,23.314,23.53,23.475,23,22,22.536,23.406,23.818,23.074,22.236,22.46,23,22.509,22,22,21.618,21,21.462,22,21.986,21.547,21,21,21.492,22,21.752,21,20.764,21,20.958,20.908,20.948,20.983,21,20.808,20.76,21,21.099,21,19.768,19.593,20,20.805,21,19,19.363,20,19.858,18.838,19,19.574,20,20,18,18.077,19.063,20,19.8,18,18,18.731,19,18.403,17.816,18,18.628,19,17.911,17,17.452,18.419,19.175,19,17.365,17,17.534,17.867,17,16.809,17,17.566,18,17.318,17,16,16.459,17.262,17.892,17,17.012,17.074,17,16,15.949,16.083,16.354,16.442,16,16,16,16,16.129,16,15,14.946,15.362,15.849,16.052,16,16,15.343,15.082,15,14.997,15,15,15.096,14.921,15.059,15.079,15,14.558,14.066,14.048,14,13.709,13,13.548,14.356,15,15,14,13,13.103,14,14,14,13,12.618,13,13.021,13,13.299,13,13,13.781,14,12,11.673,12.197,13,13.062,12.668,11.998,12,12.626,13,12.06,11,11.166,11.812,12.469,13,13,12,11.809,12,12.346,11.901,11,10.837,11,11.51,12,11.637,11.458,11,11,11.433,11,11,10,10,10.571,11,11,10,10,10,10.671,11.357,12,12,10,10,10.51,11,11,11,10,10,10.275,10.753,10.945,10.398,10,9.8389,10.267,11,11.165,11,10.697,10.539,10.361,10.202,10,10,9.5514,9,9,9.8219,10,9,9.0291,9.2241,9.2349,9.1788,9,9.2911,9,8,8.2426,9,9,9,9,8,8,8.6168,9,9,8,9,8,8.3692,9,9,9,8,9,8,8.0908,8,8,7,7,7.2117,8,8,8,8,7,7,7.4433,7.5873,8,9.0396,9.3202,9.436,9.0286,8.1169,7,6.8782,7,7,6.4339,6,6.6068,7,7,7,6.8683,6,6.0857,6.2914,6,7,7,6.6494,7.021,7.0513,7,7.2336,7,6,5.6065,5.7952,5.9715,5.9987,5.9924,5.9788,6,6,5,6,6.0579,6,6.1971,6,5,5,5.0175,5,5.0447,5,4.0615,4,4.9739,6,6,5,4.4245,4,3.9509,4.4278,5,4.852,4,4,4,4,4.4302,5,5,3,3,3,3.8223,4.4973,5,4,3.2755,3,2.8472,3,3.367,4,4,4,4,4,4,3,3,3.6203,4,4.2232,4,2,2,3,3.4726,3.5365,3,3,2.274,2.2249,3,3.0484,3,3.1627,3,2.1651,2,3,2,2.6817,3,2,1.9946,1.9978,2,2,2,2.0395,2.0606,2.3346,1.7808,1,1,1,2,2,1,1,0.92269,1,0.95696,1.4002,2,1,1,1,1,0.99538,1,1.0755,1,1,0,1,1,1,0,0,1,1,0,0,0,-1,-0.90667,0,0,0,0,0,0,-1,-0.64763,-0.076005,0,0,0,0,-1,-1,-0.92709,-1,-1,0,0,-0.41977,-0.79161,-0.93748,-1.0258,-1,0.37858,0,-1.9752,-3.3476,-4.2896,-4.9987,-5.5724,-6.0578,-6.4812,-6.8591,-7.2036,-7.5236,-7.826,-8.1162,-8.3983,-8.6757,-8.951,-9.2262,-9.5028,-9.7821,-10.065,-10.352,-10.644,-10.941,-11.243,-11.551,-11.864,-12.183,-12.506,-12.835,-13.169,-13.507,-13.85,-14.197,-14.548,-14.903,-15.261,-15.622,-15.986,-16.353,-16.722,-17.092,-17.465,-17.838,-18.213,-18.589,-18.965,-19.341,-19.718,-20.094,-20.47,-20.845,-21.22,-21.593,-21.965,-22.336,-22.706,-23.073,-23.439,-23.803,-24.165,-24.524,-24.881,-25.236,-25.588,-25.937,-26.284,-26.628,-26.969,-27.307,-27.642,-27.974,-28.302,-28.628,-28.95,-29.269,-29.585,-29.898,-30.207,-30.513,-30.816,-31.115,-31.411,-31.704,-31.993,-32.278,-32.561,-32.84,-33.115,-33.387,-33.656,-33.921,-34.183,-34.442,-34.697,-34.949,-35.197,-35.442,-35.683,-35.921,-36.156,-36.387,-36.615,-36.839,-37.06,-37.278,-37.491
25,25.936,26,24,24.303,25.295,26,24.766,24,24.223,24.65,24.721,24,23.383,23.9,24.783,25,23.168,23,23.848,24.747,24.739,23,23,24.112,25.088,24.818,23,23,23.479,23.395,23,23,22.56,22.896,23.58,24,23,22,21.997,22,22.039,22,22,21.917,21,21.348,21.877,22,21.533,21.021,21,21.477,21.877,21.603,21,21,21,20.96,20.926,20.94,21,21.072,20.683,20.48,20.779,21,21.076,20.314,20,20,20.645,21,19.798,19.752,20,20,18,18.62,19.562,20,20,18,18.122,19.043,19.908,20,18,18.256,19,18.588,18.034,17.751,18,18.73,19,18,17.333,17.711,18.552,19,18,17,17,17.618,18,17.284,16.93,17,17.594,17.886,17,16.68,16,16.615,17.014,18,17,17,16.73,16,16,16,16,16.134,16.159,16,16,16,15.999,16,15.863,15,14.923,15.291,15.757,16,15.751,15,15,14.902,15,15,15.002,15,15.021,14.982,15,15,14.788,14,13.973,14,14,14,13,13.474,14.32,14.983,15,14,13,13.288,14,14,13,12.793,12.907,13.018,13,13,12.972,13.072,13.416,14,13.79,12.127,12,12.433,13,13,12.361,12,12.263,12.846,13,12,11,11,11.747,12.546,13,12.928,12,12,12.55,13,12,11,11,11,11.608,12,11,11,11,11.569,12,10,10,9.9407,10.368,11,11.058,11,10,10,10.316,10.877,11,11.027,10.906,10,9.9816,10.473,11,10.834,10,9.7461,10,10.5,11,11,10,10,10,10.555,11.164,11,10.615,10,9.8102,9.9805,10,9.3808,9,9,9,9.5055,10.31,10,8.8697,8.5733,8.8247,9,9,8,9,8,8,8.5583,9,9,8,8,8,8.4249,9,9,9,8,8,8,8.5751,9,8.8365,8,7.6957,8,8.2501,8.873,9,7,6.6793,7,7.5714,8.0471,8,7.796,7,6.7796,7.2341,8,8,8.0622,8,7,7,7,7,6.9742,7,6,6.1152,6,6.4038,7,7.2191,7,7,7,6.2746,6.05,6,6,6.65,7,6,7,7.0932,7.0832,7,6,5.327,5,5.6553,6,6,6,6,6.1826,6,5.3909,6,6,6,6,5,4.778,4.9939,5,5,5,5,4,4,5.0081,6,5,5,4,4,4,4.631,5,5,4,4,4,4,4.5228,5,5,3,3,3,4,4.766,5,4,3,3,3,3,3.6016,4,4,3,3.2022,3.2733,3,2,2.8992,4,4,4,4,2,2,3,3.7483,4,3,2,2,2,3,3,3,3,2,2,2,2,2.2213,3,3,1,2,2,2,2,1.9961,2,2,2,2,1,1,0.96162,1.5135,1,0.59216,0.7946,1,2,1,1.5698,2,1,1.0606,1.0277,1.0085,1,1,0.98011,0.9345,1,1,1,1.0476,1,0.047619,0,1,0,0,0,0,-1,-0.71374,-0.086087,0,0,0,0,-1,-1,-0.46539,0,0,0,0,-2,-1,-0.5995,-0.53023,-1,-1,0,-2,-1,-1,-1,-1,-0.78528,0,-2,-2.8875,-3.7154,-4.4412,-5.054,-5.5751,-6.0272,-6.4282,-6.7911,-7.1258,-7.4396,-7.7385,-8.027,-8.3087,-8.5866,-8.863,-9.1396,-9.4179,-9.699,-9.9836,-10.272,-10.566,-10.864,-11.168,-11.476,-11.79,-12.109,-12.433,-12.762,-13.096,-13.434,-13.777,-14.123,-14.473,-14.827,-15.184,-15.544,-15.906,-16.271,-16.638,-17.007,-17.377,-17.749,-18.121,-18.495,-18.868,-19.242,-19.616,-19.99,-20.364,-20.737,-21.109,-21.48,-21.849,-22.218,-22.585,-22.95,-23.314,-23.675,-24.035,-24.392,-24.747,-25.099,-25.449,-25.797,-26.141,-26.483,-26.822,-27.159,-27.492,-27.822,-28.149,-28.473,-28.794,-29.112,-29.427,-29.738,-30.046,-30.351,-30.652,-30.951,-31.245,-31.537,-31.825,-32.11,-32.391,-32.669,-32.944,-33.215,-33.483,-33.748,-34.009,-34.267,-34.521,-34.772,-35.02,-35.264,-35.504,-35.742,-35.975,-36.206,-36.433,-36.656,-36.876,-37.093,-37.305
25.093,26.008,26,24.696,24.71,25.275,25.28,24,24,24.429,24.931,25,24.107,23.84,24.301,24.871,24.67,23,23.111,24.004,24.84,25,23.418,23,24.271,25.354,25,23,23.283,24,23.592,23,22.937,22.836,23,23.231,23,22,22,22.05,21.878,21.867,22,22.523,23,21.888,21.679,21.925,21.93,21.528,21,21,21.524,22,21.773,21.09,21,20.972,20.95,20.955,21,21.238,21,20.288,20,20.604,21,21,20.243,20,20,20.052,20.029,19.819,20,20,20,18.886,19.206,20,20,18,17.614,18.149,18.901,19.323,19,18.124,18.487,19,18,17.614,17.708,18.225,18.836,18.753,18.032,17.353,17.755,18.582,19,17.964,17,17.129,17.479,17,17,16.898,17,17.564,18,17,17,16.745,17,16,16.888,17,17,17.004,16,15.857,15.943,16,16.041,16.047,16,16,16.008,16.005,16,16,15.277,15,15.272,15.726,16.06,16,15,14,14.42,14.874,15,15,14.97,14.985,15.007,15.002,15,15,14,14.224,14,14,14,13.393,13.717,14.427,15,15,14,13.241,13.485,13.915,13.813,13,13,13.326,12.957,12.68,12,12.402,13,13.629,14.119,14,12,12,12.526,13.012,12.875,12,12,12.455,13,13,11,11,11,11.875,12.723,13,13,12,12,12.687,13,11,11,11,11.213,11.466,11,11,11,11.172,11.653,12,10.475,10.019,10,10.545,10.964,10.451,10,9.8871,10.052,10.489,11,10.515,10,10.047,9.8565,10,10.348,10.804,11,10.245,10,10.127,10.538,11,10,10,10.034,10,10.546,11,10,10,9,9,9.6084,10,9,9,9,9,9.4726,10,8,8,8,8.5414,9,8,7.7,8,8,8.3878,9,9,8,7.7633,8,8.341,8.8292,9,9,8,7.9376,8,8.2479,8.9098,9,9,8,8,8,8.5624,9,8,7,7,7.4209,7.9847,8,7.9054,8,7.2211,7,7.5214,8.1613,8,8,7,6.7384,7,6.9116,7,7,6,5.7662,6,6.446,7,7,7,6,6.1,6,6,6,6,6,6,6,6,6,6.7288,7,7,5,5,5.2959,6,6,6,6,6,6,5,5,6,6,6,5,5,5,5.3187,5,5,5,4,4,4.2523,5,6,5,5,4,4,4.3702,5,5,4,4,4,4,4,4.6217,5,4,3,3,3.1101,4,4.8734,5,3,3,2.9811,3,3.3771,4,4,3,3,3,3,3,2,2.9289,4,3,3,3,2,2,3,3.6706,4,2,2,2,2,3,3,3,3,2,2,2,2,2.4918,3,3,1,2,2,2,2,2,2,2,2,2,1,1,1,2.2617,3,1,1,1,1,1,1.5135,1,0,1,1,1,1,1,1,1,1,0,1,1,1,0,0,0.67975,0,0,0,0.21163,0,-0.23264,0,-0.062,0,0,0,-1,-0.78232,-0.19336,0,-1,0,-1,-2,-1,-0.24598,0,-1,-1,0,-2,-2,-1,-1,-1,-1,0,-2,-3.13,-3.9041,-4.5297,-5.0662,-5.5367,-5.9562,-6.3363,-6.6861,-7.0129,-7.3227,-7.62,-7.9087,-8.1919,-8.472,-8.7512,-9.0308,-9.3122,-9.5964,-9.884,-10.176,-10.472,-10.773,-11.078,-11.389,-11.705,-12.025,-12.351,-12.68,-13.015,-13.354,-13.696,-14.043,-14.393,-14.746,-15.102,-15.461,-15.823,-16.186,-16.552,-16.919,-17.288,-17.658,-18.028,-18.4,-18.771,-19.143,-19.515,-19.887,-20.258,-20.629,-20.999,-21.367,-21.735,-22.101,-22.466,-22.829,-23.19,-23.55,-23.907,-24.262,-24.615,-24.965,-25.313,-25.659,-26.002,-26.342,-26.679,-27.014,-27.345,-27.674,-28,-28.322,-28.642,-28.958,-29.271,-29.582,-29.888,-30.192,-30.492,-30.789,-31.083,-31.374,-31.661,-31.945,-32.225,-32.502,-32.776,-33.047,-33.314,-33.578,-33.838,-34.095,-34.349,-34.599,-34.846,-35.089,-35.329,-35.565,-35.798,-36.028,-36.254,-36.477,-36.696,-36.911,-37.123
25.264,26,25.463,24.606,24.901,25.51,25.377,24.084,24.014,24.609,25.117,25,24,24.066,24.576,25.063,25,23.441,23.414,24.106,24.302,23,23,23.336,24.398,25,23,23,23.417,24,23.602,23.126,23,22.986,23.096,23.098,22.769,22,22.236,22.475,22,21.879,22.05,22.407,22.462,21.687,21.637,22,22,21.67,21,21.031,21.529,22.023,22,21,21,20.933,20.921,20.981,21,21,19,19.506,20,20.725,21,19,19.228,19.527,19.593,19.335,19,19.466,20,20.011,19.573,19.154,19.529,20.124,20,18.404,18.076,18.564,19,19.115,18.772,18,18.521,18.868,18,17.369,17.649,18.393,19,18.52,18,17,17.57,18.419,19,18,17,17.437,18,17,17,16.913,16.923,17.087,17,17,17,16.762,16.452,16,16.52,17,17.547,18,16.704,16,16,16.001,16,16.007,16,16.001,16,15.934,15.71,15,15.048,15,15.172,15.637,16,16,14.917,14,14.533,15,15,15,14.803,14.87,15.007,15,15,15,14.698,15,14,14,13,13.174,13.813,14.481,14.866,14.539,13,13,13.633,14,14,13.287,13.477,14,13,13,12.137,12.335,13,13.731,14,14,12,12,12.631,13.145,13,12,12,12.548,13,13,11,11,11.339,12.206,13,12.761,12,12,12,12.398,12.251,11,10.891,11,11.552,12,11.316,11.043,10.993,11,10.828,10,10,10,10,10.629,11,10,9.8662,10,10,10.171,10,10,10,9.7799,9.6929,9.8233,10,10.146,10,10,10,9.9903,10,10,10,10,10,9.8901,10.11,10,10,10,9,9,9.2631,9.399,9,8.9839,9,9,8.5033,8,8,8,8,8.0703,8,8,8,8,8.1613,8.5485,9,8.5953,8,8,8.1969,8.5301,9,8.7415,8.4988,8,8,7,7.9417,9,8.5684,8,7.8716,8,8,8.6037,9,7,6.7742,7,7.516,8,7,7,7,7,7,7.517,8,7,7,7,7,7,7,7,7,6,6,6,6.7699,7,7,6,6,6,6,6,6,5.3965,5,6,6,6,6.4688,7,7,7,5,5,5.5417,6.1816,6,5.4909,5,5,5,4.8677,5,5.6466,5,5.1996,5,5.3614,5.7543,6,5,4.4261,4,3.7705,4,4.5484,5.2547,6,5,5,4,4,4.5576,5,5,5,4,4,4,4.2637,4.7762,5,5,3.613,3,3,3.962,5,5.5646,5,3,3,3,3.5883,4.1494,4,3,3,3,3.0071,3,2.5844,2.8191,3,2.8608,3,3,2,1.9303,2.5617,3,3.551,3,2.3224,2,2,2.6026,3,2.5109,2,1.8844,2,2,2,2.7583,3,2,1,2,2,2,2.0442,2,1,2,2,1,1,1,1.3522,2,1,1,1,1,1,1.4442,2,1,0,1,1,1,1,1,1,1,1,0,1,1,0.58987,0,0.20253,1,0,0,0,0,-1,-0.52841,-0.17759,0,1,0,-1,-1,-0.55786,0,-0.17553,-1,0,-0.59,-1,-1,-0.14801,0,-1,-1,-1,-2,-2,-1,-1,-1,-1,0,-2,-3.1198,-3.8858,-4.4829,-4.9866,-5.43,-5.8301,-6.1974,-6.5397,-6.863,-7.1719,-7.4705,-7.7618,-8.0486,-8.3329,-8.6165,-8.9008,-9.1868,-9.4755,-9.7675,-10.063,-10.363,-10.668,-10.977,-11.29,-11.609,-11.931,-12.259,-12.59,-12.926,-13.266,-13.609,-13.956,-14.307,-14.66,-15.016,-15.375,-15.736,-16.099,-16.463,-16.829,-17.197,-17.565,-17.934,-18.304,-18.674,-19.044,-19.415,-19.784,-20.154,-20.522,-20.89,-21.257,-21.622,-21.986,-22.349,-22.71,-23.069,-23.426,-23.782,-24.135,-24.486,-24.834,-25.18,-25.524,-25.865,-26.204,-26.539,-26.872,-27.202,-27.529,-27.853,-28.175,-28.493,-28.808,-29.12,-29.428,-29.734,-30.037,-30.336,-30.632,-30.924,-31.214,-31.5,-31.783,-32.063,-32.339,-32.612,-32.882,-33.148,-33.411,-33.67,-33.927,-34.18,-34.429,-34.675,-34.918,-35.157,-35.393,-35.625,-35.854,-36.079,-36.301,-36.519,-36.733,-36.944
25.472,26,24.748,24,24.961,25.996,26,24,24,24.817,25.146,24,24,24.24,24.657,24.815,24.242,23,23.497,24.511,25,23.297,23,23.471,24.144,24.146,23,22.88,23.109,23.297,23.174,23,23,22.936,23,23.044,23,22.258,22.579,23,22,21.843,22.001,22.192,21.911,21,21.282,22,22.194,22,21,21,21.433,21.889,22,21.212,20.975,20.829,20.816,21,21,21,19.845,20,20,20.696,21,19.71,19.497,19.631,19.623,19.216,18.907,19.411,19.97,20,18.898,18.876,19.479,20,19.629,18.438,18.425,19,19,19.031,19,18,18.733,19,18,17,17.509,18.37,18.753,18,18,17,17.539,17.865,18,18,17.206,17.542,18,17.268,17.047,17.008,17,17.087,16.924,17,16.934,16.712,16,16,16.478,17.022,17.349,17.324,16.501,16,16,15.999,15.996,16.003,16,16,16.012,16,16,15.191,15,14,14.747,15.509,16,16,15,14.563,15,15,14.628,14.063,14.113,14.555,15,15,14.727,14,14.456,14.846,14.107,13.854,13,13.279,14,14.594,15,15,13.338,13.307,14,14,14,13,13.227,13.509,13.244,13,12,12.384,13.214,14,14,13,12,12.12,12.726,13,12,12,12,12.692,13,12.015,11,10.999,11.512,12.33,13,12.858,12,11.898,12,12.34,12,11.115,11,11.079,11.662,12,11.307,11,11,11,11.025,9.9774,10,10,10,10.439,10,10,10,10,10,10.366,10,10,9.7147,9.4344,9.4646,9.7024,10,10,10,10,10,9.9514,10,10,10,9.7286,9,9.4281,10,10,10.049,10,9.1043,8.9085,9,9,8.9617,9,9,8.606,8,8,8,7.9941,7.9776,7.9619,7.9198,7.9775,8,8,8,8.1931,8.3493,8,7.923,8,8,8.0475,8,8,8,7.9779,8,7.4435,7.7658,8,8,8,8,8,7.9312,7.8358,7,7,7,7,7.0871,7,7,7,7,7,7,7.0906,7,7,7,7,7,6.9,7,6,6,6,6,6.3754,7,6,6.2027,6,5.9831,6,6.1727,6,5.5628,5,5.0375,6,6.1544,6.4116,7,7.0148,7,5,4.6529,4.9191,5.4815,6,5,5,5,5.0402,5,5,5,6,5,5,5,5.6834,6,5.5116,4.4677,4,3.8859,4,4.4214,4.8158,5,5.075,4,4.1747,4,4.2851,4.8452,5,4.5267,3,3.5388,3.7879,4,4.5177,5,5,3,3,2.8703,3,3.9715,5,5,3,3,3,3.0717,3.6812,4,3,3,3,3,3,3,3,3,2.982,3,3,3,2,2,2.5546,2.8771,3,2,2,2,2,2,2.2501,2,1.8978,2,2.003,2,2.274,3,3,2.4,2,2,2.0527,2,1.8234,1,1,2,2,1,1,1,1.5623,2.2469,2,1,1,1,2,1.441,1,0.68413,0,1,1,1,1,0,1,1,0,0,1,0,0,0,0,1,0,0,0,0,0,0,0,0,0,0,-1.0284,-1,-0.43261,0,0,-0.77244,-0.59997,-1,-2,-1.2041,0,0,0,-0.5225,-0.68125,-1,-1.555,-1.087,-1,-1,-1,-1,-2,-2.9828,-3.7299,-4.3199,-4.8159,-5.2518,-5.6462,-6.0103,-6.3519,-6.6765,-6.9885,-7.2914,-7.588,-7.8806,-8.171,-8.4608,-8.7512,-9.0433,-9.3378,-9.6354,-9.9365,-10.241,-10.55,-10.864,-11.181,-11.503,-11.829,-12.159,-12.493,-12.831,-13.172,-13.517,-13.865,-14.216,-14.57,-14.927,-15.285,-15.646,-16.008,-16.373,-16.738,-17.104,-17.472,-17.84,-18.208,-18.577,-18.946,-19.314,-19.682,-20.05,-20.416,-20.782,-21.147,-21.511,-21.873,-22.234,-22.593,-22.95,-23.305,-23.659,-24.01,-24.359,-24.706,-25.05,-25.392,-25.731,-26.068,-26.402,-26.733,-27.062,-27.388,-27.71,-28.03,-28.347,-28.66,-28.971,-29.279,-29.583,-29.884,-30.183,-30.477,-30.769,-31.058,-31.343,-31.625,-31.904,-32.179,-32.451,-32.72,-32.986,-33.248,-33.507,-33.762,-34.014,-34.263,-34.508,-34.75,-34.988,-35.223,-35.455,-35.683,-35.907,-36.128,-36.346,-36.559,-36.769
25.431,25.548,24,24,25.208,26.299,26,24,24.285,25.371,26,24,24,24.35,24.755,24.799,24,23.12,23.62,24.554,24.736,23,23,23.562,24,23.718,23.046,22.849,22.844,22.584,22.692,22.896,22.833,22.567,22,22.59,23,22,22.322,22,21.81,21.813,22,22.269,22,21,21,21.676,22.095,22,21,21,21.256,21.512,21.484,21,20.894,20.65,20.546,21,21.098,21,20.314,20.076,20.087,20.62,20.886,20.29,20,20,20,19.435,19,19.565,20,20,18,18.522,19.41,20,19.504,18,18.374,19,18,18.431,19,18.715,19,18,18,17,17.674,18.598,19,18,17.53,17.44,18,17.611,17.768,18,17,17.262,17,16.942,17,17.247,17.438,17.493,17,16.909,17,17.166,16,15.992,16.491,17,16.933,16.509,16,15.923,16,16.002,16,16.023,16,16,16.007,16,15.837,15,15,14.416,15,15.596,16,16,15,14.695,15.006,15,14.396,13,13.354,14.199,15,15,15,14,14.56,15,14,14,13.328,13.477,14,14.513,15,15,13,13.313,14,14,13,13,13.117,13,13,12,12,12.558,13.38,14,14,12.988,12,12.239,12.851,13,12.102,12.028,12.333,12.948,13,11,11,11,11.548,12.261,12.845,13,12,12,12.418,12.707,12,11,11,11,11.669,11.821,11,11,11,11.642,12,10,10,10,10.396,11,10.249,10,10,10,10.384,11,10.398,10,9.3553,9,9.1669,9.4522,9.7625,10,10.086,10,9.5895,9.7439,10,10.011,10,10,9,9.3429,9.8753,10,10,9.9616,8.7855,8.747,9,9,9,9,8.6799,8.3099,7.9967,7.9805,7.9932,8,7.9955,8,8,8,7.9237,7.6786,7,7.6737,8,8,8,8,7,7.6804,8,7.9715,8,8,8,7.7592,8,8,8,8,8,7.9438,8,8,7,7,7,6.9829,7,7,7.0576,7,7,7,6.939,7,7,7.0819,7,7,6,6,6,5.8307,6,6.035,6,6.2424,6.4202,6,6,5.9814,6,6,6,5,5,4.8701,5,6,6,6.1969,6.3127,6,6,5,5,4.9071,5,5,4.8408,5,5.1832,5,4.4146,4,4.6845,5,4.8958,5,5.3998,6.0746,6,5,4,4,4,4,4.8031,5,5,5,4,4,4.0729,4.4289,5,5.0414,5,3,4,4,4.5478,4.8351,5,5.5582,5,3,3,3.1981,4,5,5,3,2.9,3,3,3.7524,4,3,3,3,3,3,3,3,3,3,3,3,2,3,2.7782,3,3,3,2,2,2,2,1.9366,2,2,2,2,2,2,2,2,2,2,1,1.8333,2,2.2283,2.703,3,1,2,2.2796,2,1.4071,1.1732,1.4749,2,1,0.85,1,1,0,0.61735,0.83,1,0,0.7,1,1,0.54878,0,0.83173,1,0,-0.2371,0,-0.13183,0,0,0,1,0,0,-1,0,0,0,0,0,0,0,-1,0,0,0,0,-1,-1,-1,-2,-1.1906,0,0,-1,-1,-1,-2,-2,-0.95752,0,-1,-1,-2,-2.3878,-2.9549,-3.5498,-4.0955,-4.5814,-5.0167,-5.4133,-5.781,-6.1273,-6.4575,-6.776,-7.086,-7.3902,-7.6905,-7.9887,-8.2863,-8.5843,-8.8838,-9.1853,-9.4895,-9.7968,-10.108,-10.422,-10.74,-11.062,-11.388,-11.718,-12.051,-12.388,-12.729,-13.073,-13.42,-13.769,-14.122,-14.477,-14.834,-15.193,-15.554,-15.916,-16.28,-16.645,-17.011,-17.378,-17.745,-18.112,-18.48,-18.847,-19.214,-19.581,-19.947,-20.312,-20.676,-21.039,-21.401,-21.761,-22.12,-22.478,-22.833,-23.187,-23.538,-23.888,-24.235,-24.58,-24.923,-25.263,-25.601,-25.936,-26.268,-26.598,-26.925,-27.249,-27.57,-27.889,-28.204,-28.517,-28.826,-29.132,-29.436,-29.736,-30.033,-30.327,-30.617,-30.905,-31.189,-31.47,-31.748,-32.023,-32.294,-32.562,-32.827,-33.088,-33.346,-33.601,-33.852,-34.1,-34.345,-34.586,-34.823,-35.058,-35.288,-35.516,-35.739,-35.96,-36.176,-36.389,-36.598
25.751,26,24,24.174,25.329,26,24,23.679,24.409,25.401,25.662,24.413,24.155,24.458,24.859,25,24.022,23,23.619,24.584,25,23,23.109,23.689,23.733,23.383,23.007,23,23.008,22,22.333,23,23,22.956,22,22.464,23,22.766,23,22.241,22,21.909,22,22.487,22,21,20.957,21.506,21.966,21.898,21.112,21,21.089,21.202,21.168,21,21,20.503,20,20.576,21,21.017,20.439,20,20,20.569,20.943,20.532,20.107,20,20.058,19.79,19.667,20,20,20,18.809,19,19.609,20.147,20,18,18.415,19,18.078,17.889,18,18.568,18.864,18,17.865,17.644,18.185,18.747,18.542,18,17,17.459,18,17,17.453,18,17.816,18,17.296,17,17.054,17.536,17.82,18,17.301,17,17.425,18,16,16,16.48,16.867,16.625,16,16,16,16.013,16,16,16.101,16.131,16,15.939,16.083,16,15,14,14.192,14.936,15.596,15.899,15.593,14,14.388,15,15.306,15,13,13.203,13.983,14.822,15.132,15,14.5,14.868,15,14,13,13.001,13.502,14,14,13.77,13,13,13.561,14,14,13.12,13.23,13.455,13.081,13,12.04,12,12.746,13.578,14.108,14,13,12,12.362,13,13,12,12,12.492,13,12.838,11,10.852,11,11.556,12.031,12.23,12,11.85,12,12.764,13,11,11,11,11.384,12,12,11,11,11,11.813,12,10,10,10,10.241,10.407,10,9.9612,10,9.9684,10.139,10,10,9.7844,9,8.8044,9,9.1928,9.4002,9.7625,10,9.6976,9,9.5399,9.8837,10,10.135,10,9.3886,9.6032,10,10.032,10,10,8,8.5428,8.8924,9,9,8,8.041,8,8,8,8,8,7.9992,8,8,8,8,8,7.5722,8,8,8,8,7,7.0807,8,8.0918,8,8,8,7,7.4692,8,8.0573,8,7.3839,7,7.5211,7.968,8,7,6.7695,6.8062,6.9095,7,7.0317,7,6.3927,6,6,6.5666,6.9237,7,7,6.6813,6.4716,5.983,6,6.0095,6,6.1656,6,5.9477,6.0517,6,5.9554,6,6,6,5,5,4.85,5,5,5,5.4389,5.7736,6,6,6,6.1137,6,5,4.8649,4.9312,5,5,5,5,4,3.9219,4,5,5,5,5,5.4063,6,5,5,5,4,4,4.3387,5,4,5,5,4,4,4,4.0558,4,4,4,3,3,3.9391,5,5,5,5,3,3,3,3.2056,4,5,4,3,3,3,3.3345,4,4,3,3,3,3.0032,3,3,3,3,3,3,3,2,2,2.4454,3,3,3,2,2,2,2,1.9794,2,2,2,2,2,2,2,2,2,2,1,2,1,1.6546,2,1,1,2,2,1,1,0.92198,1,1.6441,1,1,1,1,2,1.3279,1,1.2164,1,1,1,0,0,0.096349,1,1.312,1,0,-0.063107,0,0,0,0,1.0637,1,0.3397,-0.6428,0,0.056275,0,0,0,0,-1,-1,-1,0,0,0,-1,-1,-1,-2,-1.1474,0,0,-1,-1,-1,-2,-2,-1.3608,-1,-0.93196,-1,-1,-2,-2.6836,-3.2835,-3.8232,-4.3073,-4.7449,-5.1463,-5.5203,-5.8739,-6.2124,-6.5397,-6.8588,-7.1723,-7.4819,-7.7894,-8.096,-8.4027,-8.7105,-9.02,-9.3317,-9.6462,-9.9636,-10.284,-10.608,-10.935,-11.266,-11.6,-11.938,-12.278,-12.622,-12.969,-13.318,-13.67,-14.024,-14.38,-14.738,-15.098,-15.46,-15.823,-16.187,-16.552,-16.917,-17.283,-17.65,-18.016,-18.383,-18.749,-19.115,-19.48,-19.845,-20.209,-20.571,-20.933,-21.293,-21.652,-22.009,-22.365,-22.718,-23.07,-23.42,-23.768,-24.114,-24.457,-24.798,-25.137,-25.473,-25.806,-26.137,-26.465,-26.791,-27.114,-27.434,-27.751,-28.065,-28.376,-28.684,-28.989,-29.291,-29.59,-29.886,-30.179,-30.469,-30.755,-31.039,-31.319,-31.596,-31.87,-32.14,-32.407,-32.671,-32.932,-33.189,-33.443,-33.694,-33.941,-34.185,-34.425,-34.662,-34.896,-35.126,-35.352,-35.575,-35.794,-36.01,-36.222,-36.431
25.773,26,24,24.314,25.305,25.557,24,24,24.725,25.57,25.637,24.387,24.121,24.421,24.607,24.504,24,23,23.595,24.069,24,23,23.378,24,23.488,23.069,23,23.641,24,22,22.179,23,23.557,24,22.679,22.607,23,22.829,22.624,22,22,22.086,22.405,23,22.255,21.185,21,21.483,21.99,22,21,20.859,20.944,21.019,21,20.985,21,20.664,20.082,20.492,21,21,20.385,20,20.086,20.536,21,20.52,20,20,20,19.95,20.029,20,20,19.539,18.977,19.096,19.603,20,20,18.856,18.786,18.885,18,17.756,17.949,18.617,19,18,17.937,18.155,18.685,19,18,18,17,17.428,17.354,17,17.424,17.982,18.133,18.085,17.296,17,17,17.713,17.538,17,17,17,16.69,16,15.726,16,16.553,17,16.744,16,15.962,16,16.011,15.999,16,16.102,16,15,15.476,15.973,16,15.002,14.016,14.264,15,15.696,16,16,14.679,14.754,15,15.288,15,13.741,13.648,14,14.722,15,14,14.337,15,15,14,13.029,13,13.644,14,14,13.445,13,13.323,14,14.184,14,13,13.488,14,13,13,12,12.19,13,13.72,14,13.259,12,11.879,12.447,13,12.928,12,12,12.586,13,13,11,11,11.286,11.771,12,12.051,12,12,12,12.929,13,11,11,11.07,11.614,12,11,11,10.912,11,11.62,10.919,10,9.9531,10,10.062,10,10,10,9.9513,10,10.37,10,10,10,9,8.7797,8.9175,9,9,9.4546,10,10,9.6971,10,10,10,10,9,9.1993,9.7278,10,10,10,8,7.8898,9,9,9,9,8,8,8,8,8,8,8.0004,7.9997,8,8,8,8,7,7.5187,8,8,8.0974,8,7.172,7.3562,7.9257,8,7.9639,7.7325,7,6.9372,7.5857,8,8,8,7,6.8718,7.4949,8,8,7,6.504,6.5912,6.8313,6.9748,7,7,6,6,6.178,6.7232,7,6.8215,6,6,6,5.9472,6,6,6,6,5,5.6575,6,6,6,6,6,5,4.7742,5,5,5,5,5,5,5.6885,6,6,6,6,5.8631,5.2446,5,5,5,5,4,4,3.9837,4.1362,4,4,5,5,4,4.5882,5,5.0458,5,4,4,3.9502,4.0352,4,4,5,5,3.9189,4,3.942,4,4,4,4,4,3,3.7671,4.2355,4,4,4,3,3,2.9021,3,3.8343,4,3,4,3,3,3.4082,4,4.0296,4,3,2.945,3,3,3,3,3,3,3,3,2,2,1.9603,2,3,3,2,2,2,1.9526,2,2,2,2,2,2,2,2,2,2,2,1,1,1,1.7089,2,1,1,2,2,0.73861,0.64528,0.84413,1,2,1,1,0.41055,0,1,1,1,1,0,1,1,0,0,0,1,1,0,0,0,0,0,0,0.19363,1,0,0,-1,-0.24135,0,0,0,0,0,-0.79794,-1,-1,0,0,0,-1,-1,-1,-1.3691,-1,-0.3168,-1,-2,-1,-1,-2,-2,-1.3219,-1,-1,-2,-2,-2,-2.492,-3.0405,-3.5557,-4.0268,-4.4595,-4.8618,-5.2407,-5.6017,-5.949,-6.286,-6.6154,-6.9391,-7.2591,-7.5767,-7.8931,-8.2094,-8.5263,-8.8444,-9.1644,-9.4866,-9.8113,-10.139,-10.469,-10.802,-11.138,-11.477,-11.819,-12.164,-12.511,-12.861,-13.213,-13.567,-13.924,-14.282,-14.641,-15.002,-15.365,-15.728,-16.093,-16.458,-16.823,-17.189,-17.555,-17.921,-18.286,-18.652,-19.017,-19.381,-19.744,-20.107,-20.468,-20.828,-21.187,-21.544,-21.9,-22.254,-22.606,-22.956,-23.305,-23.651,-23.995,-24.337,-24.676,-25.013,-25.348,-25.68,-26.009,-26.336,-26.66,-26.982,-27.3,-27.616,-27.929,-28.239,-28.545,-28.849,-29.15,-29.448,-29.743,-30.035,-30.324,-30.609,-30.892,-31.171,-31.447,-31.72,-31.99,-32.256,-32.519,-32.779,-33.035,-33.289,-33.539,-33.785,-34.028,-34.268,-34.504,-34.737,-34.966,-35.192,-35.414,-35.633,-35.848,-36.059,-36.267
25.398,25.309,24.186,24.629,25.624,26,24.391,24.27,25.003,25.87,26,24,24,24.499,24.399,24,24,23.683,24,23.842,24,23,23.501,23.872,22.864,22.649,23,23.784,24,22,22.157,22.891,23.123,22.871,22,22.169,22.492,22.465,22.265,22,21.981,22.013,22.06,22,22,21,20.969,21.475,22,22,21.162,20.886,20.947,21.004,21,21,21.135,21,20,20.454,21,20,19.957,19.917,20,20.066,20,20.18,20,19.634,19,19.796,20.358,20.019,19.797,19,18.815,19,19.569,19.902,19.527,19.076,19,19,18,17.833,18,18.425,18,17.8,18,18.417,18.874,18.935,18,17.949,17.752,18,17,17,17.471,18,18.126,18,17,17,17.23,18,17.439,17,17,16.889,16.633,16,16,16.103,16.588,17.049,17,16,16,16,15.986,16,16,16.034,16,15.458,15.649,16,15.92,15,14,14.451,15,15.81,16,14,14.226,15,15.093,15,14,13.777,14,14,14.661,15,14,14.382,15,14.87,13.571,13,13.315,14,14,13.534,13.126,13.023,13.48,13.974,14,13.467,13,13.593,14,13,12.434,12,12.328,13.053,13.751,14,13,12,12.089,12.67,13,13,12,12,12.731,13,11,11,11,11.485,12,12,11.886,12,12,12.51,13.238,13,11.495,11.017,11,11.671,11.858,11.069,11,11,11.566,12,10,10,10,9.9787,10.095,9.9766,10,10,10,10.372,11,10.344,10,10,9,8.858,9,9,8.9256,9,9.1783,10,9.9517,10,10,10,10,9,9.3721,10,10,10,10,8,8.0898,9,9,8.2913,8.2202,7.9668,8,8,8,8,8,8.0015,8,8.0011,8.003,7.9992,7.9432,7.5834,8,8,8.0173,8,7.4223,7,7.587,8,8,8.0623,8,7,7.308,8,8.0812,8,7.8959,7,7,7.7044,8,7,6.2795,6,6.4013,6.8405,7,7,6,6,6,6.4427,7,7,7,6,6,5.9883,6,6,5,5,5,5.1637,6,6,6,6,5,5,5,5.0016,5,5,4,4,4.3537,5.0332,6,6.2366,6,5.8568,6,5.6283,5.2467,5,5,5,4,3.7384,4,4.5535,5,5,4,4.1982,4,4.0351,4.6286,5,5,4,4,3.6843,3.7942,4,4.0099,4.2975,5.3185,5,3,3,3.5814,4,4.1257,4,3.9051,3,3.0822,4,4,4,3.9354,3.754,3,2.9107,2.8885,3,4,4,3,3,2.631,2.7409,3,3,3,3,3,3,3.0468,3,3,2.7318,3,3.002,3,3.2647,3,2.3368,2,2,3,3,2,1.7408,1.4365,1.6751,2,2,2,2,2.034,2,2.0339,2,2.0008,2,1.95,1,1,1.3771,2,2,1,1.1299,2,1.401,0,0.37185,1,1,2,1,0.39448,0,0,1,1.0638,1.0755,1,0,0,0,0,-0.062499,0,1,1,0,-1,0,0,0,0,0,1,-0.35,-1,-1,0,0,-0,0,0,-1,-1,-1.0206,-0.88032,-0.034313,0.16696,0,-1,-1.0391,-0.97274,-1,-1,0,-1,-2,-1,-1,-2,-1.7453,-1,-1,-2,-2.3,-2,-2,-2.4094,-2.8729,-3.3278,-3.7631,-4.1778,-4.5739,-4.9539,-5.3203,-5.6757,-6.0221,-6.3617,-6.696,-7.0266,-7.3547,-7.6814,-8.0076,-8.334,-8.6613,-8.9899,-9.3203,-9.6527,-9.9874,-10.324,-10.664,-11.006,-11.35,-11.697,-12.046,-12.397,-12.75,-13.106,-13.463,-13.821,-14.181,-14.543,-14.905,-15.269,-15.633,-15.998,-16.363,-16.729,-17.095,-17.46,-17.826,-18.191,-18.556,-18.92,-19.283,-19.645,-20.007,-20.367,-20.725,-21.083,-21.439,-21.793,-22.146,-22.496,-22.845,-23.192,-23.536,-23.879,-24.219,-24.557,-24.893,-25.226,-25.556,-25.884,-26.21,-26.532,-26.852,-27.17,-27.484,-27.796,-28.104,-28.41,-28.713,-29.013,-29.31,-29.604,-29.894,-30.182,-30.467,-30.748,-31.027,-31.302,-31.574,-31.843,-32.108,-32.371,-32.63,-32.885,-33.138,-33.387,-33.633,-33.875,-34.114,-34.35,-34.582,-34.811,-35.036,-35.257,-35.475,-35.69,-35.9,-36.107
25.162,25,24,24.752,25.672,26,24,24.207,25,25.748,26,24,24.301,25,24.528,24,24,23.914,23.766,23,23.252,23.166,23.708,24,22,22.216,23,23.517,23.301,22,22.32,23,22.718,22,21.794,21.951,22.142,22.138,22,22,22,21.995,21.997,21.993,22,21,20.973,21.462,21.941,21.878,21,20.806,21,21.055,21,21,21.104,21,20,20.387,20.83,20.371,20.189,20.009,20,20.012,20.173,20.378,20,20,19.67,20.32,21,20,20,19.099,18.926,19.054,19.647,20,19,18.998,19,18,18,18.164,18.578,19,18.153,17.877,18,18.526,18.908,19,18,18,18.055,18,17,16.997,17.514,18,17.702,17,17,16.87,16.455,16,16.503,16.85,17,17,17.161,16.418,16.022,16,16.494,16.931,16.838,16,16,15.579,15.809,16,15.612,15.751,16,15.841,15.874,16,16,15,14.533,15,15,15.796,16,14,14.293,14.831,15,15,14.077,13.881,14,14,14.539,15,14.336,14.58,15,15,13,13,13.484,14,13.866,13,12.84,13,13.646,14,14,13,12.993,13.676,13.981,13,12,12,12.419,13,13.58,14,13,12,12.386,13,13,12,11.768,12,12.733,12.678,11,10.815,11,11.522,11.673,11,11.218,11.608,12,12.747,13,11,11,11,11.368,12,12,11,10.906,11,11.74,11.762,10,9.9119,10,10,10.375,10,9.9836,10,10,10.049,10,10,10,10,9.3386,9.0462,9.0093,9,9,9,8,9.0711,9.6077,10,10,10.189,10,9.5336,9.7149,10,10,10,9.0713,8.0553,8.0507,8.3085,8,7,7.4274,7.8401,8,8,8,7.9998,8,8.0047,8.0009,8,8,8,8,7.8974,8.0376,8.0184,8,8,7,7.2058,8,8,8,8,8,7.4804,7.7345,8,8,8,8,7,7.3038,8,8,7,6,6,6.5044,7,7,7,6,6,6.1917,6.6336,7,7,6,6,6,6.0356,6,6,5,5,5,5.392,6,6,6,5,5,4.9803,5.1929,5.528,6,5,4.101,4,4,4.986,6,6,5,5,5,5,5,4.7668,4,4.157,3.9179,4,4.4209,5,5,4,4,4,4,4.5037,5,5,4.495,3.6118,3.2988,3,3.5842,4,4,4,5,3,2.6795,3.2201,3.7073,4,4,3,4,2.845,3.043,3.8914,4,4.1619,4,4,3.2466,3.0066,3,2.8594,3,4.0291,4,3.0196,2.3699,2.6137,3,3,3,3,2.846,3,3.0791,3,2.3829,2,2.7983,3,3.1834,3,2,1.9663,1.9048,2,3,3.4293,3,2,1,1.5162,2,3,2,2,2,1.6432,2,2,2,2,2,0,0.69682,1.5418,2.0757,2,2,1,1,1,0,0.48016,1,1.3188,2,1.1446,0,0,0.30301,1,1,1,1,0,0,-0.079177,0.060456,0,0,1,1,-1,-1,0,0.36268,0,0,0,0,-1,-1,-1,0,0,0,0,-1,-1.2,-1,-1,-1,0,0,-0.8667,-1,-1,-1,-1.0599,-1,0,0,-2,-1.1869,-1,-2,-1.5688,-1,0,-2,-2,-1,-2,-2.404,-2.7585,-3.1317,-3.5179,-3.9065,-4.2912,-4.6687,-5.0382,-5.4,-5.7549,-6.104,-6.4484,-6.7892,-7.1277,-7.4645,-7.8006,-8.1367,-8.4732,-8.8107,-9.1495,-9.4899,-9.8321,-10.176,-10.522,-10.87,-11.22,-11.572,-11.926,-12.281,-12.638,-12.997,-13.357,-13.718,-14.08,-14.444,-14.808,-15.173,-15.538,-15.904,-16.27,-16.635,-17.001,-17.367,-17.732,-18.097,-18.461,-18.824,-19.187,-19.548,-19.908,-20.267,-20.625,-20.981,-21.335,-21.688,-22.039,-22.389,-22.736,-23.081,-23.425,-23.766,-24.104,-24.441,-24.775,-25.107,-25.436,-25.762,-26.086,-26.408,-26.726,-27.042,-27.356,-27.666,-27.973,-28.278,-28.58,-28.879,-29.174,-29.467,-29.757,-30.044,-30.327,-30.608,-30.885,-31.16,-31.431,-31.699,-31.964,-32.225,-32.484,-32.739,-32.991,-33.239,-33.484,-33.726,-33.964,-34.199,-34.431,-34.659,-34.883,-35.104,-35.321,-35.535,-35.745,-35.951
24.875,25,24.618,25,25.216,25.097,24.175,24.417,25,24.787,24,24,24.55,25,24.388,24,24,24.081,24,23.216,23.048,23.052,23.337,23,21.989,22.189,22.907,23.32,23,22.291,22.518,23,22.674,22.053,22,22,22.041,22.037,22,22,22,21.997,21.999,22,22,21,20.991,21.487,22,22,20.693,20.593,21,21.103,21,20.631,20.831,21,20.409,20.552,21,20.838,20.603,20,19.583,19.889,20.525,21,20.345,20,19.823,20.272,20.591,20,19.77,19,19.174,19,19.594,20,19,19.067,19,18,18,18.336,18.768,18.868,18,18,18.28,18.665,18.531,18,17.859,18,18.121,17.904,17,17,17.55,17.99,17.73,17.009,17,17,16.391,15.923,16.371,17,17.197,17.583,18,16.645,16,16.01,16.477,16.953,17,16.219,16,15,15.66,16,15,15.369,15.95,16.022,16,16,16,14.736,14.541,15,15.161,15.696,16,14.954,15,15,15.162,15,14,13.98,14,13.972,14.055,14,14,14.663,15.051,14.788,13.17,13.045,13.642,14.145,14,13,12.967,13.366,14,14,13,12.73,13,13.81,14,12,12,12,12.557,13,12.906,13.2,13,12.583,12.798,13,12,12,12,12.458,13.082,13,11.431,11,11.323,11.876,12,11,11,11.43,12,12.824,13,11.305,11,11.066,11.564,12.009,11.532,11,11,11,12.01,12,10,10,10,10.427,11,10,10,10,10,10.002,10,10,10,10,9.4156,9.1109,9,8.9948,9,8.9742,8.5061,9,9.0836,9,9.5891,10,9.7574,9.7145,9.96,10,10.014,9.6551,8,7.8271,8,8,8,7.1136,7.4003,8,8.0558,8.0254,8.0078,8,7.9913,8.0071,8,8,8,8,8,7.9444,8,8,8,8,7,7.3562,8,8,8,8,7,7.34,8,8,8,8,7,7,7.4991,8,7.4625,6,6,6.2507,6.7064,7,7,7,6.1876,6,6.3457,6.8082,7,6.8486,6,5.9025,6,6.1539,5.9494,5.4908,5.0469,5,5,5.5462,6.0269,6,5.5643,5,4.9497,5,5.121,5,5,4.4899,4,4,4.22,5,5.6995,5,4.8172,5,4.9564,4.9667,4.7889,5,4.2182,4,4,4,4.5357,4.9474,5,3,3.6297,4,4.4062,4.983,5,4.5896,4,3.2359,3,3,3.7866,4.1724,4,3.6765,4,3,3.2646,4,4,4.3226,4,3.1339,3,2,2.789,4,4,4,3,4,3,2.8964,3,3,3,4,3.2694,2.5335,2,2.5837,3,3.2208,3,2,2,2,2.8047,3,2,2,3,3,3,2,1.8034,2,2,2,2.7071,3,2,2,1.6598,2,1.9654,2,2,2,2,1,2,2.1454,2,2.0927,2,0,1,1.8298,2,1,1,1,0.96481,1,0.70374,1,1,1,1,1,0,0,0.44873,1,1,1,0.50426,0,-0.085275,0,0.37196,0.12908,0.33303,1,0,-1,-1.0114,0.16158,1,0,-0.5,0,0,-1,-1,-0.76921,-0.15904,0,0,-1,-1,-1,-1,-1,-1,0,0,-2,-1,-1,-1,-1,-0.74401,0,-2,-2.1313,-1,-1,-1,-1,-1.2931,-2,-2,-2,-2,-2.1514,-2.3543,-2.6179,-2.9324,-3.2802,-3.6458,-4.0186,-4.3921,-4.7628,-5.1291,-5.4908,-5.848,-6.2013,-6.5517,-6.8997,-7.2462,-7.5919,-7.9374,-8.283,-8.6293,-8.9766,-9.325,-9.6747,-10.026,-10.379,-10.733,-11.089,-11.446,-11.804,-12.164,-12.525,-12.887,-13.251,-13.615,-13.98,-14.345,-14.711,-15.077,-15.444,-15.81,-16.177,-16.543,-16.909,-17.275,-17.64,-18.004,-18.368,-18.73,-19.092,-19.452,-19.812,-20.17,-20.526,-20.881,-21.234,-21.586,-21.936,-22.284,-22.63,-22.974,-23.315,-23.655,-23.992,-24.328,-24.66,-24.99,-25.318,-25.643,-25.966,-26.286,-26.604,-26.918,-27.23,-27.539,-27.846,-28.149,-28.45,-28.747,-29.042,-29.334,-29.623,-29.909,-30.191,-30.471,-30.748,-31.021,-31.291,-31.559,-31.823,-32.084,-32.341,-32.596,-32.847,-33.094,-33.339,-33.58,-33.818,-34.052,-34.283,-34.51,-34.734,-34.955,-35.171,-35.384,-35.593,-35.799
24.149,24.618,24.723,24.766,24.532,24.32,24,24.476,25,24.505,24,24.08,24.736,24.89,23.825,23.667,23.915,23.963,23.505,23.114,22.979,23,23.395,22.811,22,22.291,23,23.235,22,22,22.434,22.88,22.713,22,22,22,22.007,22.008,22,22,22.001,22.003,22.008,22,21.826,21.189,21.051,21.498,22,22,20,20.312,21,21.046,20.715,20,20.388,20.605,20.265,20.267,20.579,20.935,21,20,19,19.644,20.59,21,20,19,19.349,20,20.357,20.2,20,19.717,20,19,19.456,20,19,19.266,18.852,18,17.964,18.402,18.875,19,18.194,18,18.512,19,18.569,18.088,18,18,18.194,18,17.192,17.131,17.759,18.343,18.17,17,16.967,17,16.472,16,16.384,17,17,17.325,17.239,16,16,16,16.443,16.93,17,16,16,15.607,16,15.956,15.15,15.249,16,16.064,16,16.128,16,14,14.275,15,15,15.102,15,14.899,15.013,15,15,14,14,14.315,14.034,14,13.935,13.95,14.292,15,15.218,15,13,13,13.742,14,13,13,13.136,13.564,14.031,14,13.195,13,13.371,14,14,12.237,12,12.269,12.82,13,12,12.41,12.76,12.844,12.998,13,12.112,12,12,12.688,13,12,11,11,11.545,12.085,12,11.22,11,11.51,12.201,12.644,12,11,11,11,11.562,12,11,11,11,11.314,12,11,9.9976,10,10.048,10.291,10.452,10,10,9.9995,10,10.007,10.016,10,9.7261,9,8.9744,9,9,9,9,9,8.7844,9,9,9,9,8,8.7259,9.3954,10,10,10,10,8,8,8,8,8,7,7.392,8,8,8,8,8,7.9111,8,8,8,8,8,7,7.671,8,8,8,8,7,7.5424,7.9314,8,8,8,7,7.3721,8,8,8,8,7,7,7.637,8.1256,8,8,6.8515,6.702,7,7.0536,6.956,6.4615,6,5.99,6.4983,7,7,7,6.1592,6,6.3147,6.5262,6,5,5,5.0198,5.2761,5.7862,6,5.4559,5,4.9124,5,5.2679,5.1722,4,4,4,4,3.9996,4.3783,5,6,5,5,5,5,5,4,4,4,4,4,4,4.471,4,3,3,4,4,4.4976,5,4,4,4,3,3,3.2633,4,4,3,3,4,3,3.662,4,3,4,3,3,3,3,3,4,3,3,3,3,2,2.6598,3,3,3,3,2,2.3916,3,3,3,3,2,2,2,2.3342,3,3,2,2,2,2,2,2,2,2,2,2,2,1,1,1.5964,1.853,2,2,2,2,1,1,1,1,2,2,2,2,0,0.90823,2,2,1,1,1,1,1,1,1,1,1,1,0,0,0.06036,0.52976,1,1,1,0,0,0,0.49382,1,0,0,0,0,0,-1,0.26038,1.4233,1,-1,0,-0.055556,-1,-1,-0.58344,0,1,0.20238,-0.36905,0,-1,-1,-1,-1,0,0,-2,-1,-1,-1,-1,-1,0,-2,-2,-1,-1,-1,-1,-1,-2,-2.05,-2,-2,-2,-2.1903,-2.4355,-2.7252,-3.0503,-3.3993,-3.7618,-4.1304,-4.5004,-4.8692,-5.2356,-5.5991,-5.9598,-6.3182,-6.6748,-7.0302,-7.3848,-7.7391,-8.0935,-8.4483,-8.8038,-9.1601,-9.5174,-9.8757,-10.235,-10.596,-10.957,-11.32,-11.683,-12.048,-12.413,-12.779,-13.145,-13.512,-13.879,-14.247,-14.615,-14.983,-15.35,-15.718,-16.085,-16.452,-16.818,-17.184,-17.549,-17.913,-18.276,-18.638,-18.999,-19.359,-19.717,-20.074,-20.43,-20.784,-21.136,-21.486,-21.835,-22.181,-22.526,-22.869,-23.209,-23.547,-23.883,-24.217,-24.548,-24.877,-25.204,-25.528,-25.849,-26.168,-26.484,-26.797,-27.108,-27.416,-27.721,-28.023,-28.323,-28.62,-28.913,-29.204,-29.492,-29.777,-30.058,-30.337,-30.613,-30.886,-31.155,-31.422,-31.685,-31.945,-32.202,-32.456,-32.706,-32.953,-33.197,-33.438,-33.675,-33.909,-34.139,-34.366,-34.589,-34.809,-35.025,-35.237,-35.446,-35.651
24.084,24.633,24.883,24.675,24,23.921,24,24.359,24.407,23.995,23.782,24,24.96,25,23,23.345,24.032,24.127,23,23,23.135,23.492,24,23,22,22.459,23.43,24,22,21.885,22.41,22.955,23,22,21.916,21.949,21.981,22,22,22,21.999,22,22,22.006,21.832,21.291,21,21.458,21.924,21.826,20.727,20.64,20.966,21.09,21,20.52,20.604,20.604,20,19.834,20,20.749,21,20,19,19.729,20.733,21,20,19,19.287,19.888,20.212,20,19,19.49,20,19,19.094,19.488,19.576,20,19,18,17.915,18.43,18.751,18.427,18,18,18.474,19,18.272,18,18,18.262,18.187,17,16.821,17,17.959,18.883,19,17,17,17,16.645,16,16.339,17,17,17.179,17,16,16,16,16.358,16.806,16.817,16,15.928,15.856,16,16,15,14.642,15.321,15.822,16,16,15.686,14,14.367,14.88,15,14.797,14.697,14.812,14.999,15.048,15,14.184,14.464,15,14,14,13.918,14,14.434,14.927,15,15,13,13.217,14,14,13.143,13,13.14,13.595,14,14,13.22,13,13.594,14.193,14,12,12,12.466,13,12.932,12,12.255,12.776,12.981,13,12.891,12,11.987,12.372,13,13,12,11,11,11.644,12,11,11,11,11.687,12.534,13,12,11,11,11,11.216,11,11,11,11,11.057,11,11,10,10,10,10.048,10,9.9524,10,10,10.002,10.006,10,10,10,9.244,8.987,8.9794,9,9,8.6586,8,8.5439,8.8813,9,9.1559,9,8,8.5906,9,9.2329,9,9,9.0404,8.1534,8,8,8,7,7,7.5028,8,8,8,8,7,7.502,8,8,8,7.6888,7,7.1324,8,8,8,8,7,7.1556,8,8,8,8.1312,8,7.2961,7.5501,8,8,8,7.5448,7.0946,7.3,7.8308,8,7,6,6,6.5421,7,7,7,6,6,6,6.636,7,7.1682,7,6,6,6.6451,7,6,5,5,5,5.4663,6,6,5,5,5,5,5.7366,6,4,4,4,4,4,4.6011,5,5,5,5,5,5,5,4,4,4,4,4,4.5137,5,4,3,3,4,4,4.0835,4,4,4,4,3,2.9333,2.9632,3,3,3,3,4.05,4,4,3,2.7,3,3,3,3.1495,3,3.0093,3,2.8477,3,3.0076,3,3,3,2.484,2,3,3,2,2.4506,2.7411,2,2,2,2,1.9361,2,2.6175,2.8234,2,1,1,2,2,2,2,2,2.15,2,2,2,1,1,1.6783,2,1.817,2,1,1.1584,1,1,1.1,1,2,2,2,1,0,0.94012,2,2,1,1,1,1,1,1,1,1,1,1,0,0,0,0.56669,1,1,1,0,0,0,0.63097,1,0,0,0,0,-1,-1,0.18823,1,-1,-1,-0.44444,0,-1,-1,-0.55565,-0.80596,-1,-1,-1,-1,-1,-0.59134,-0.15159,0,-1,-0.58081,-1,-1,-0.93776,-1.1943,-1.3527,-1,-1,-2,-2,-1,-1,-1,-1,-1,-2,-2,-2,-2,-2,-2.0923,-2.2812,-2.5387,-2.8423,-3.1758,-3.5277,-3.8899,-4.2571,-4.6259,-4.9945,-5.362,-5.7281,-6.0929,-6.4566,-6.8196,-7.1821,-7.5446,-7.9071,-8.2699,-8.6333,-8.9972,-9.3618,-9.7271,-10.093,-10.46,-10.827,-11.195,-11.563,-11.932,-12.302,-12.671,-13.041,-13.411,-13.781,-14.15,-14.52,-14.89,-15.259,-15.627,-15.995,-16.363,-16.729,-17.095,-17.46,-17.824,-18.187,-18.549,-18.909,-19.268,-19.625,-19.982,-20.336,-20.689,-21.04,-21.389,-21.736,-22.082,-22.425,-22.766,-23.105,-23.442,-23.777,-24.109,-24.439,-24.767,-25.092,-25.415,-25.735,-26.052,-26.367,-26.679,-26.989,-27.296,-27.6,-27.901,-28.199,-28.495,-28.788,-29.077,-29.364,-29.648,-29.929,-30.207,-30.482,-30.754,-31.022,-31.288,-31.551,-31.81,-32.066,-32.319,-32.569,-32.816,-33.059,-33.299,-33.535,-33.769,-33.998,-34.225,-34.447,-34.666,-34.882,-35.094,-35.302,-35.506
24.487,25,25.314,25,24,23.968,24.277,24.5,24,23.477,23.66,24.3,25,24.14,23.201,23.638,24.575,25,23,23,23.12,23.363,23.511,23,22,22.464,23.205,23.38,22.242,22,22.491,23.009,23,22.175,22,21.975,21.987,22,22,22.001,21.994,22.002,22.027,22.059,22,21.42,21.129,21.533,22,22,21.297,21,21,21.033,21,20.861,20.968,21,20,19.747,20,20.791,21,20,19.453,20.088,21,20.952,20,19.39,19.557,20,20.217,20,19,19.394,19.74,19,18.76,19,19.586,19.874,19,18.121,18,18.756,19.022,18,18,17.857,17.707,17,17,17.468,18,18.74,19,17.361,17,17,18.053,18.949,19,17,17,17.313,17.184,16,16.173,16.76,16.986,17.107,16.852,16,15.937,15.955,16.224,16.784,17,16.199,16,15.994,16.059,15.904,15,14,14.854,15.705,15.957,16,16,14.832,15,15,15,14.487,14.484,14.762,15,15,15,14,14.488,15,14,14,13.864,14,14.569,15,15,13,13,13.441,14.002,14,13,12.5,12.861,13.521,14,13.779,13,13.006,13.678,14,12.998,12,11.986,12.553,13,13,12,12.316,13,13.148,13,13,12,12,12.56,13,12,12,11,11.189,11.748,12,11,11,11.109,11.793,12.604,13,12.113,11,10.97,11.266,11.494,11.015,11,10.962,11,11.15,11.019,11,10,9.9352,9.9594,9.9906,10,10,10,10,9.954,10,10,10.239,10,9.2133,9,9,9.0021,9,9,8.6418,9,9,9,9,8,8.1454,9,9,9,9,8.7514,8.5205,8.0983,8,8.1338,8,7.2263,7.2847,7.7302,7.9762,8,8.0275,8,7.473,7.7111,8,8.0446,8.0755,8,7.4699,7.5546,7.9738,8.0268,8.0282,7.9258,7.0834,7.3501,7.9344,8,8.0402,8,7,7,7.6074,7.9305,7.9541,7.7806,7,7,7.5177,8,8,8,6,6,6.6473,7,7,7,6,6,6.3864,7,7,7,6,6,6,6.8046,7,5,5,5,5,5.5646,6,6,5,5,5,5,5.8792,6,4,4,4,4,4.3925,5,5,5,5.032,5,4.9962,5,5,4,3.9478,4,3.9314,4,4.6579,4.5235,4,3,3,4,3.9993,4,4,4.0133,4,4,4,3.2494,3,3,3,3,3,4,3,3.1974,3,3,3,3.0895,3,3,2,3,3.0143,3,3,3,3,2.4938,2,2,2,2.8108,3,3,3,3,2,1.9521,2,2,2,2.3305,3,3,2,1,1,2,2,2,2.1279,2,2,1,1.7636,2,1,1.3503,2.0023,2,1,1.2385,1,1,1.416,2,2,2,1,1.1358,1,0.28486,0.14517,1,1.7007,2.0803,2,0,0.29778,1,1.0444,1,1,1,0.85,0,0,0,0,0.70816,1,1,0,0,0,0,0.67721,1,0,0,0,0,-1,-0.89987,0,0.55501,-1,-1,-1,0,-1,-0.61652,0,-1,-1,-1,-1,-1,-0.89062,-0.34942,0,-1,-1.1919,-1,-2,-1.179,-1,-1.544,-2,-1.2375,-1,-1,-2,-1.2048,-1.3132,-1.7054,-2,-1.4536,-2,-2,-2,-2,-2,-2.0202,-2.1622,-2.3882,-2.6686,-2.9846,-3.3235,-3.6765,-4.0379,-4.4037,-4.7717,-5.1407,-5.5099,-5.8791,-6.2483,-6.6175,-6.9868,-7.3564,-7.7263,-8.0965,-8.4672,-8.8384,-9.2099,-9.5819,-9.9542,-10.327,-10.7,-11.073,-11.446,-11.82,-12.193,-12.566,-12.939,-13.312,-13.684,-14.056,-14.428,-14.799,-15.169,-15.539,-15.908,-16.276,-16.643,-17.009,-17.374,-17.738,-18.1,-18.461,-18.821,-19.179,-19.536,-19.891,-20.245,-20.597,-20.946,-21.295,-21.641,-21.985,-22.327,-22.667,-23.005,-23.34,-23.674,-24.005,-24.333,-24.66,-24.983,-25.305,-25.624,-25.94,-26.253,-26.564,-26.873,-27.178,-27.481,-27.781,-28.079,-28.373,-28.665,-28.954,-29.24,-29.523,-29.803,-30.08,-30.354,-30.625,-30.893,-31.158,-31.42,-31.678,-31.934,-32.186,-32.436,-32.681,-32.924,-33.164,-33.4,-33.632,-33.861,-34.087,-34.309,-34.528,-34.743,-34.954,-35.162,-35.366
24.483,25,25.629,25,24,24.139,24.674,25,24,23,23.505,24.327,24.532,23,23,23.636,24.514,25,23.533,23,23.016,23.09,23,23,22.503,22.69,23.069,23.004,22.16,22,22.628,23.125,22.844,22,22,22.001,22.001,22.001,22,22,21.962,21.968,22,22,22,21.231,21,21.519,22,22,21.356,21.141,21,20.882,20.803,20.856,21,21,20,19.842,20.308,21,20.892,19.67,19.46,20.171,21,21,20.08,19.652,19.796,20,20.179,19.995,19.216,19.61,20,19.2,18.575,19,19.693,20,19.155,18.285,18.546,19.515,20,18,18,18,18.001,17,17,17.413,18.069,18.787,18.774,17,17,17.358,18.179,18.388,17,16.694,17,17.669,18,16,16.137,16.746,16.995,17.146,17,16,16,15.91,16,16.699,17,16,15.872,16,16.088,16,15.136,14.514,15.13,16,16,16,14,14.252,15,15,14.808,14,14.312,14.806,15,15,15,14,14.474,14.784,14,13.537,13.649,14.14,14.801,15.11,15,13,13.075,13.651,14,14,13,12,12.655,13.488,14,13.819,13,13,13.814,14,12,12,12,12.715,13,12,11.794,12.293,13,13.285,13,12,12,12,12.558,12.818,12,11.895,11.394,11.483,11.602,11,10.823,10.883,11,11.71,12.362,12.582,12,11,11,11.559,12,11,11,11,11.301,11.533,11,10.821,10,10,9.9902,10,10.019,10,9.655,9,9.6348,10,10,10,8,8.3424,9,9,9,9,9,8.8552,9,9,9.1512,9,8,8.3171,8.9226,9,9,9.0194,8.62,8.2296,8,8,8,7,7,7.4437,8,8,8,8,8,7.8112,8,8,8,8,8,7.7257,7.87,8,8,8,8,7,7.5675,8,8,8,8,7.2573,7.3899,8,8,8,8,7,7,7.7257,8,7,6,6,6.3438,7,7,7,6,6,6,6.6238,7,7,7,6,6,6.377,7,7,5,4.8867,5,5.2663,5.7874,6,5,5,4.9688,5,5.422,6.1003,6,4.3983,4,4,4,4.595,5,4,4.6686,5,5.0133,5,5.0085,4.5304,4.0675,4,3.989,4,4.3939,5,4,4.1477,4,3,3,3.5861,3.9054,4,4,3.8673,3.4215,2,2.5086,2.81,2.9491,3,2.9608,3,4,3.2321,3,2.9627,3,3.1186,3,2.4863,2,1.9757,3,3,3,2.7719,3,2.562,2,2,2,2.1572,3,3.2352,3,2.5168,2,1.979,2,2,2,2,2.1273,2.3128,2,2.1344,2,1,2,2,2,2.5532,3,1,0.92676,2,1.9377,2,1.793,2,1,0.79828,1,1,1,1.4579,1.9235,2,1,1,1,1,0,0.1642,0.77164,1,1,0,0,0,1,1,1,0.39042,0,1,0,0,0.055718,0.42034,1,1,0.60705,0,-0.024527,0,0,0.74877,1,0,0,0,0,-1,-0.86104,0,1,-1,-1,-1,0,-1,-0.42773,0,-1,-1,-1,-1,-1,-1,-0.40016,0,-1,-1,-1,-2,-1,-2,-1.7905,-2,-1,-1,-2,-1.8546,-1,-1.4979,-2,-1.8722,-1,-1.7393,-1.9457,-2,-2,-2.0715,-2,-2.0976,-2.2866,-2.5381,-2.832,-3.154,-3.4943,-3.8463,-4.2059,-4.5703,-4.938,-5.3079,-5.6794,-6.0523,-6.4262,-6.8011,-7.1768,-7.5532,-7.9301,-8.3075,-8.6853,-9.0634,-9.4417,-9.8201,-10.198,-10.577,-10.955,-11.333,-11.71,-12.088,-12.464,-12.84,-13.216,-13.591,-13.965,-14.339,-14.711,-15.083,-15.453,-15.823,-16.192,-16.559,-16.925,-17.29,-17.654,-18.016,-18.377,-18.736,-19.093,-19.449,-19.804,-20.156,-20.507,-20.856,-21.203,-21.548,-21.891,-22.232,-22.57,-22.907,-23.241,-23.573,-23.903,-24.23,-24.555,-24.878,-25.198,-25.515,-25.831,-26.143,-26.453,-26.76,-27.064,-27.366,-27.665,-27.962,-28.255,-28.546,-28.834,-29.118,-29.401,-29.68,-29.956,-30.229,-30.499,-30.767,-31.031,-31.292,-31.55,-31.805,-32.057,-32.305,-32.551,-32.793,-33.032,-33.267,-33.499,-33.728,-33.953,-34.175,-34.393,-34.608,-34.819,-35.026,-35.229
24.402,25.394,26,24,23.777,24.177,24.749,25,23.96,23,23.675,24.635,25,23,22.848,23.39,23.651,23,23,22.908,23.065,23.143,23,22.898,22.737,22.873,23.101,23,22,22.157,22.959,23.562,23,22,22,22.018,22.01,22,22,22.011,21.868,21.888,22,22,20,20.365,21,21.414,21.286,20,20.505,21,21,20.664,20.457,20.689,21,21,19.749,19.782,20.462,21.079,21,19,19.175,20.092,20.918,20.862,19.724,19.597,20,20.111,20.114,20,19,19.685,20,19,18,18.748,19.687,19.977,19,18,18.681,19.667,20,18,18.033,18.567,19,17.537,17.159,17.429,18,18.701,19,17.483,17,17.64,18.607,19,17,17,17.035,17.28,17,16.176,16.376,17,17,17.088,17,16.157,16,15.968,16.083,16.713,17,16,15.823,15.951,16,16,15,14.682,15.266,16,16,16,14,14.262,15,15,15,14,14.56,15.178,15,15,14.546,14.303,14.795,15,14,13,13.404,14.223,15,15,15,13.487,13.441,14,14,13.899,13,12.5,13,13.695,14.187,14,13,13.272,14,14,12,12,12.348,13,13,12,11.861,12.36,13,13.451,12.907,12,11.898,12,12.629,13,12.42,12,11.551,11.791,12,11,11,11,11,11.706,12.056,12,11,10.8,11,11.42,11.439,11,10.952,11,11.513,12,11,11,10,10,9.9965,10,10,10,10,9.6237,10,10,10,10,8.1245,8.2119,8.8485,8.9844,9,9,8,8.6004,8.9167,9.03,9,8,8.0067,8.6013,9,9,9,9,8.4195,8,8,8.0473,8,7.0541,7,7.5256,8,8,8,8,7.6005,7.6867,8,8.0157,8,8,7,7.4113,8,8,8,8,7,7.13,8,8,8,8,7,7,7.4864,8,8,8,8,7,7.2628,8,8,8,6,6,6.4624,7,7.0891,7,6,6,6.3388,7,7,6.7587,6,5.826,6,6.5918,7,6,5,5,5,5.4312,5.9287,6,5,5,5,5.1007,5.6672,6,4.9668,4,4,4,4.0779,4.7081,4.9437,4.2752,5,5,5,5,5,4,4,4,4,4,4.2406,4.42,4,4,3,3,3.1606,3.7256,4,4.0232,4,4,4,3,3,3,3,3.0138,3,2.9032,3,3,3,3,3,3,2,2,2,2,3,3,3,2,2,2,2,2,2,2,3,3,2,2,2,2,1,2,2,1,1.6748,2,2,2,1,1,2,2,1.9524,1.8682,1,1,1,2,1,1,1,1,0.87017,1,1,0.68556,1,1.1803,1,0,1,1.0866,1,1.2674,1,0.56491,1,1.0596,1,0,-0.073567,0,0.83076,0.81474,0.40513,0,0.1907,1,0,0,0,0.42216,0,0,0,-0.058252,0,0,0.3479,1,1.0577,1,0,0.021566,0,-1,-0.82243,0,1,-1,-1,-1,0.049006,0,0.019873,0,-1,-1,-1,-1,-1,-1,-0.76525,-1,-1,-1,-1,-2,-1,-1.1741,-1,-2,-1,-1,-2,-2,-2,-2,-2,-2,-1,-2,-2,-2,-3,-2.4843,-2.1534,-2.1136,-2.2371,-2.4509,-2.7187,-3.0206,-3.3449,-3.6844,-4.0344,-4.3922,-4.7558,-5.124,-5.4958,-5.8706,-6.2478,-6.627,-7.0077,-7.3897,-7.7725,-8.156,-8.5399,-8.924,-9.3081,-9.6921,-10.076,-10.459,-10.842,-11.224,-11.606,-11.987,-12.367,-12.746,-13.124,-13.501,-13.878,-14.253,-14.627,-15,-15.371,-15.742,-16.111,-16.478,-16.845,-17.209,-17.573,-17.935,-18.295,-18.654,-19.01,-19.366,-19.719,-20.071,-20.42,-20.768,-21.114,-21.458,-21.8,-22.139,-22.477,-22.812,-23.145,-23.476,-23.804,-24.13,-24.454,-24.775,-25.094,-25.41,-25.724,-26.035,-26.344,-26.65,-26.953,-27.254,-27.552,-27.847,-28.14,-28.429,-28.716,-29,-29.282,-29.56,-29.835,-30.108,-30.377,-30.644,-30.907,-31.168,-31.425,-31.679,-31.93,-32.178,-32.423,-32.665,-32.903,-33.138,-33.37,-33.598,-33.823,-34.044,-34.262,-34.476,-34.687,-34.894,-35.097
24.572,25.541,25.766,24.19,24,24.237,24.557,24.55,23.992,23.612,24.057,24.57,24.363,23.109,23,23.722,23.991,22.995,23,23,23.381,23.493,23,22.836,22.806,22.934,23.086,23,22,22.251,23.157,24,23,22,21.904,22,22.001,22,22.06,22,21.596,21.68,22,22,20.695,20.584,21,21.679,22,20.842,20.698,20.901,20.805,20.357,20,20.46,20.84,20.583,19,19.617,20.567,21,21,19,19.297,20.201,21.046,21,19,19.312,20,20,19.574,19,19.175,20,20,18,17.886,18.818,19.824,20,18,18,18.77,19.326,19.172,18,18,18.434,18.243,17,17,17.358,17.778,17.848,17,17,17.043,17.69,18.534,19,17.423,17,17,17.224,16.849,16.2,16.425,17,17.078,17,17,16,15.906,16,16,16.673,17,16,15.839,16,16,16,14,14.424,15.233,15.894,16,16,14.826,14.722,15.029,14.977,14.557,14.407,15.193,16,15.362,15,14,14.35,15,15,13.64,13,13.413,14.268,14.996,15,13.932,13,13.385,14,14,14,13.257,12.892,13.121,13.699,14,13,13,13.452,14,13.78,12,11.942,12.488,13,12.832,12.074,12,12.637,13.488,14,13,12,12,12.248,12.515,12,12,11,11,11.645,12,11.268,11,11,11.4,12,11.846,12,11,11,11.287,11.506,11,11,11,11,11.124,11,11,11,10,9.9114,9.974,10,10,10,10,9.828,10.031,10,10.105,10,8,8.364,9,9,8.944,8.5182,8.2964,9,9,9,8.9152,8.1043,8.3191,9,9,8.9653,8.7902,8,7.9187,7.9339,8,8,8,7,7.1727,7.6965,7.9623,8,8.1019,8,7,7.4308,8,8,8,8,7,7.387,8,8,8,8,7,7.2742,8,8,8,8,7,7,7.6404,8,8,8,7,6.86,7.3173,7.803,7.4553,6,6,6.0513,6.5291,6.941,7,6.937,6.1075,6,6.4241,6.9384,7,7,6,6,6.0643,6.5848,6.5502,5,4.8199,5,5.0513,5.5495,6,5.9891,5.1498,5.0105,5,5,5.7709,6,4,4,4,3.9052,4,4.8622,5,4,5,5,5,5,4,4,4,4,4,4,4.0392,4,4,4,3,3,3.3137,4,4,4,4,4,2,2.4948,3,3,3,3,3,3,3,3,3,3,3,3,2,2,2,2,3,3,2,2,2,2,2,2,2,2,2,2,2,2,2,2,1,1,1,1.2825,2,2,2,2,1,0.92073,1,1,1.776,2,1,1,1,1,1,1,1,1,1,1,1,0,0.55429,1,1,0,1,1,1,1,0,0,1,1,1,0,0,0,1,0.80649,0,0,0,0,0,0,0.40401,1,0,-0.1,0,0,0,0,0.43916,1,0,-1,-0.41197,0,0.19632,0,-0.55751,0,0.23543,-1,-1.1511,-1,0,-1,-0.21852,0,-1,-1,-1,-1,-1,-1,-0.54169,-0.94015,-1,-1,-1.2071,-2,-1,-0.90226,-1,-2,-1,-1,-2,-2,-2,-2,-2,-2,-1,-2,-2,-2,-2,-2,-2,-2.06,-2.1936,-2.3924,-2.6399,-2.9218,-3.228,-3.552,-3.8896,-4.2379,-4.595,-4.9593,-5.3296,-5.7047,-6.0838,-6.4661,-6.8508,-7.2374,-7.6253,-8.0142,-8.4035,-8.7931,-9.1826,-9.5717,-9.9604,-10.348,-10.736,-11.122,-11.507,-11.891,-12.274,-12.656,-13.037,-13.416,-13.794,-14.171,-14.546,-14.92,-15.293,-15.664,-16.033,-16.401,-16.767,-17.132,-17.495,-17.857,-18.216,-18.574,-18.931,-19.285,-19.638,-19.988,-20.337,-20.684,-21.028,-21.371,-21.711,-22.05,-22.386,-22.72,-23.052,-23.381,-23.708,-24.033,-24.356,-24.676,-24.993,-25.308,-25.621,-25.931,-26.238,-26.543,-26.846,-27.145,-27.442,-27.736,-28.028,-28.316,-28.602,-28.885,-29.166,-29.443,-29.718,-29.989,-30.258,-30.524,-30.787,-31.047,-31.303,-31.557,-31.807,-32.055,-32.299,-32.54,-32.778,-33.013,-33.244,-33.472,-33.696,-33.917,-34.135,-34.348,-34.559,-34.765,-34.968
24.746,25.767,26,24,24,24.252,24.415,24.214,24,24.043,24.444,24.656,24,23,23.365,24.42,25,23,23,23.352,23.994,24.369,23.617,23,22.88,22.946,23,23,22,22.078,22.621,23,22.751,22,21.884,21.931,21.977,22.004,22,21.6,21,21.249,21.773,21.997,21.308,21,21.136,21.7,22,21.358,20.982,21,20.848,20.358,20,20.584,21,21,19.739,20.126,21,21,21,19.739,19.843,20.324,21,21,19,19.435,19.962,20,19.424,19,19.422,20,20,18.555,18.386,19.143,19.97,20,18.309,18.265,19,19.098,18.698,17.997,18,18.517,17.936,17.048,17,17.468,18,18.166,17.032,17,17,17.444,17.765,18,17,17,17.365,17.639,17,16,16.306,17,17.156,17,16.497,16,15.897,15.948,16,16.622,17,16.098,15.838,15.962,16,15.941,14.824,15,15.516,16,16,15.528,15.043,15,15.113,15,14,14.451,15.353,15.87,15,14.735,14,14.534,15,15,13,12.83,13.439,14.32,15,15,13,13,13.463,14,14,13,13,12.978,13,13.529,13.806,13,13,13.546,14,14,12,12,12.65,12.963,12.808,12,12,12.798,13.727,14.036,13,12.17,12,12.574,13,12,12,11.03,11,11.429,11,11,11,11,11.61,12,11,11.176,10.951,11,11.594,12,11,10.951,11,10.984,11.127,11,10.738,10,9.8116,9.8772,10,10.02,10,9.6664,9,9.5075,10,10,10,9.9376,8.9431,9,9.0625,9,9,8,8.2795,8.9016,9,9,9,8,8.3874,8.9343,9.0078,9,9,8,7.8016,8,8,8,7,7,7.4554,8,8,8,8,8,7,7.5169,8,8,7.7447,7,6.9318,7.4651,8,8.0246,8,7.8163,7,7.3752,7.9008,8,7.741,7,6.8706,7.2829,8,8.0639,8,7.8629,7,7,7.5048,8,8,6,5.8249,6,6.6611,7,7,7,6,5.9614,6.4923,7,7.1695,7,6.2415,6,6,6.8028,7,5,5,5,5,5.6554,6,6,5,5,5,5,5.838,6,4,4,4,4,4.4386,5,4,4,5,5,5,4.5088,4,4,4,4,4,4,4.0136,4,4,3,3,2,2.93,4,4,4,4,4,3,3,3.052,3,3,3,2.6493,3,3.0133,3,3,3,2.7372,2,1.8176,1.937,2,2,3,3,2.1472,2,2.1028,2,1.9567,2,1,2,2,2,2,2,2,1,1,1,2,2,2,2,2,1,0.49922,1,1,1.3047,2,2,1,0.87212,1,0.94748,1,0.98936,1,1.0763,1,1,0,0,0.60219,1,1,0,0.1,0,0,0,-0.20781,0,1,1,1.0958,0.19454,-0.35943,0,0.95811,1,0,0,0,0,-1,-0.49013,0,0,0,0,0,0,0,0,0,0,0,-1,0,0,0,0,-1,0,0,-1,-1,-0.60629,0,-0.57185,0,0.050445,0,-1,-1,-1,-1,-0.68195,0,-1,-1,-0.92929,-1,-2,-2,-1.1551,-0.76622,-1,-1,-0.75,-1,-2,-2.0405,-2,-2,-2,-1,-2,-3,-2,-2,-2,-2,-2.0542,-2.1795,-2.3646,-2.5939,-2.8556,-3.1419,-3.4479,-3.7704,-4.107,-4.4555,-4.8141,-5.1812,-5.5554,-5.9352,-6.3195,-6.7074,-7.0978,-7.4901,-7.8835,-8.2777,-8.6721,-9.0663,-9.4601,-9.8532,-10.245,-10.636,-11.026,-11.415,-11.802,-12.188,-12.572,-12.955,-13.336,-13.716,-14.094,-14.471,-14.845,-15.218,-15.59,-15.96,-16.328,-16.694,-17.058,-17.421,-17.782,-18.141,-18.499,-18.854,-19.208,-19.559,-19.909,-20.256,-20.602,-20.945,-21.287,-21.626,-21.963,-22.298,-22.631,-22.962,-23.29,-23.616,-23.939,-24.261,-24.579,-24.896,-25.209,-25.521,-25.83,-26.136,-26.44,-26.741,-27.039,-27.335,-27.628,-27.919,-28.207,-28.491,-28.774,-29.053,-29.33,-29.603,-29.874,-30.142,-30.407,-30.669,-30.929,-31.185,-31.438,-31.688,-31.935,-32.178,-32.419,-32.656,-32.891,-33.121,-33.349,-33.573,-33.794,-34.011,-34.224,-34.434,-34.641,-34.843
24.782,25.679,26,24,23.977,24.379,24.525,24,24,24.227,24.741,25,24,23,23.47,24.497,25,23,23,23.46,24.236,25,23.866,23,22.968,23.035,23.059,23,22.149,21.963,22.278,22.775,23,22.446,22.099,21.97,21.995,22,21.971,21.489,20.958,21,21.525,22,21.507,21,21,21.548,22,21.488,21,21,21,20.623,20.561,21,21,19,19.176,20.139,21,20.309,19,19.266,20,20,20.183,19.961,19.449,20,20,19.593,19.244,19.273,19.708,19.832,19.3,18.471,18.62,19.368,20,19.794,18,18.188,18.868,18.878,18.445,18,18.4,19,17.767,17,17,17.653,18.493,19,17,17,17,17.379,17,17.209,17,17.165,17.671,18,16.803,16,16.144,16.748,17.096,17,16,16,15.907,16,16,16.354,16.324,15.552,15.624,16,16.272,16,15.133,15.22,15.649,16,15.813,15,14.996,14.961,15,14.803,14,14.657,15.475,16,15,15,14.591,15,15,14.542,13.119,13,13.606,14.419,15,15,13,13,13.54,14,13.917,13,13.124,13.307,13,13.405,14,13.356,13.358,13.728,13.767,13,12.035,12.282,13,13,13,12.197,12,12.891,13.856,14,12,12,12,12.701,13,12,12,11,11.385,12,11,11,11,11,11.613,11.455,11,10.898,11,11,11.632,11.897,11,11,11,11,11.366,11,11,10.147,10,9.9651,10,10,10.056,10,9.5163,9.7388,10,10.013,10,10,9.2918,9.1152,9,9,9,8,8.5053,9,9,9,8,8,8.6179,9,9,9,8,7,7.4561,8,8,8,7,7,7.64,8,8,7.75,7,8,7.7111,8,8,8,8,7.145,7.1842,7.6832,7.9542,8,8.1394,8,7.4973,7.7555,8,8.0924,8,7.1121,7,7.4432,8,8,8.1478,8,7.1909,7,7.6432,8,8,6,6,6.3694,7,7,7,6,6,6,6.6435,7,7,6,6,6,6.4012,7,7,5,5,5,5.3768,6,6,5,5,5,5,5.3699,6,6,4,4,4,4,4.6246,5,4,4,5,5.2,5,4,3.8412,3.9416,4,4,4,3.9626,4.0156,4,4,4,3,2.3453,3,4,4.05,4,4,4,3,3,3,3,3.0663,3,2,3,3,2.999,3.0326,3.0825,3,2.1371,2,2.0663,2,2.0486,2.4298,2.401,2,2.0755,2.5921,3,2,1.8819,1.194,2,2.1756,2.4821,3,2.3655,1.5997,1.0061,0.97898,1.1413,2,2,2.0708,2,1.5921,1,0,0.58705,1,1.5041,1.7539,1,0.54297,0.55948,1,1,1.0945,1,1,1,0.74237,1,1,0.72917,1,1,1,1,0,0,0,0.078127,0,0,0,0,1,0,-1,-0.12322,1,1,0,0.084776,0,0.30448,0,-0.17439,0,0.058719,0,0,-1,-1,-1,0,0,0,0,-1,0,0,-1,-1,-1,0,0,-1,-1,-1,-2,-1.4287,-1,-1,-1,-1,-1,-1,-2,-1.3516,-1.0454,-2,-1,-1,-1,-2,-1.7597,-1.056,-1,-2,-1,-1,-2,-2,-1.9041,-2,-2,-2,-0.82323,-1,-3,-2,-2,-1.9938,-2,-2.0606,-2.1879,-2.3659,-2.5792,-2.8198,-3.084,-3.3696,-3.6748,-3.9977,-4.336,-4.6877,-5.0507,-5.4229,-5.8026,-6.1883,-6.5784,-6.972,-7.3679,-7.7653,-8.1636,-8.5622,-8.9606,-9.3584,-9.7554,-10.151,-10.546,-10.939,-11.33,-11.72,-12.108,-12.495,-12.879,-13.262,-13.643,-14.022,-14.4,-14.775,-15.149,-15.52,-15.89,-16.258,-16.624,-16.989,-17.351,-17.711,-18.07,-18.426,-18.781,-19.133,-19.484,-19.833,-20.179,-20.524,-20.866,-21.206,-21.544,-21.88,-22.214,-22.545,-22.875,-23.202,-23.526,-23.848,-24.168,-24.486,-24.801,-25.114,-25.424,-25.731,-26.036,-26.339,-26.639,-26.936,-27.231,-27.523,-27.813,-28.1,-28.384,-28.665,-28.944,-29.219,-29.492,-29.762,-30.03,-30.294,-30.555,-30.814,-31.069,-31.322,-31.571,-31.818,-32.061,-32.301,-32.538,-32.772,-33.002,-33.23,-33.453,-33.674,-33.891,-34.104,-34.314,-34.52,-34.722
24.606,24.837,24,23.691,24.074,24.698,25,24,23.58,23.948,24.598,25,24,23,23.322,23.955,24,23,22.892,23.082,23.231,23,23,22.924,23.182,23.171,23,22.831,22,21.784,22,22.628,23.03,22.659,22.232,22,22.08,22.154,22,21.478,21,21,21.05,21,21.361,21,20.944,21.128,21.32,21.235,21,21,20.606,20.484,20.748,21.145,21,19.211,19.213,20.173,21,20.45,19.011,19.185,19.905,20,19.567,19,19.349,20,20,18.955,18.844,19.357,20,19.79,18.574,18,18.627,19.507,20,20,18,18.311,19,18.805,18.339,18,18.219,18.19,17,17,17,17.549,18.083,18,17,17.048,17.411,18,17.361,17.11,17,17.076,17.363,17,16,16,16,16.563,16.973,16.876,16,15.514,15.648,16,16.14,16.371,16.13,15,15.489,16,16,14,14.309,15,15.561,16,16,15.518,15.452,15,15,15,14.557,15,15.166,15,15,14,14.314,14.909,15,14.485,13,13.039,13.78,14.542,15,14.719,13,13.111,13.703,14,14,13,13.468,14,13.219,12.785,13,13,13.497,14,14,13,12,12.396,13,12.771,12,12,12.24,13,13.823,14,12,12,12.33,12.917,13,12.224,11.941,11.199,11.568,12,11.178,11,11.088,11.487,12,11,10.845,10.575,11,11.204,11.714,12,11,11,11.108,11.409,12,11.393,11,10,10,9.9929,10.004,10,10,10,9.7863,10,10,10,10,9,8.8273,9,9,9,9,8.5638,9,9,9,9,8,8.277,9,9,9,8.9308,8,7.3838,7.6798,8.0207,8,7,6.8651,7.2717,8,8.1051,8,8,7,7.406,7.7165,8,8.0326,8.0167,7.8841,7,7.3842,8,8,8.0394,8,7,7.3507,8,8,8,8,7,7,7.508,7.9348,8,8,7,7,7.3328,8,8,6,6,6,6.5076,7,7,6.5,6,6,6.3613,7,7,7,6,6,6,6.6928,7,5,4.6695,5,5,5.6005,6,5.5214,5,4.9711,5,5.0955,5.6136,6,5,4,3.8476,4,4,4.6113,4.4537,4.054,4,4,5,5,4.1422,3.9492,4,4,4,3.5984,3.7294,4,4,3.7724,3,2.3544,2.3789,3.0589,4,4,4,3.7382,3,2.8164,2.9149,2.9699,2.9934,3,2.8437,2,3,3.0857,3,3,3,3,2,2,2.3313,2,2,2,2,2,2,2.4271,2,2,2,1,2,2,2.0753,2,2,1,1,1,1,2,2.0717,2,1.4241,1,1.1196,1,1,1.4178,1.8796,2,0.6338,0.14366,0,0.42192,1,1.299,1,0.38505,0,0,1,0,0.55561,0.93224,0.51961,0.31123,0,0,-0.060584,0,0.39336,0,0,-0.06068,0,0,-1,-0.98896,-0.030621,1,0,0,0,-1,0,-1,-0.40043,0,0,-1,-1,-1.1549,-1,-0.90293,0,0.21346,0,-0.36633,-1,-1,-1,-1,-1.1057,-1,0,0,-0.99833,-1.2687,-1,-1,-1,-1,-1,-1,-1,-2,-2,-1,-1,-1,-2,-1,-1,-1,-2,-1.382,-1,-2,-2,-1.45,-1,-2,-2,-1.4231,-1,-2,-1.7677,-1,-2,-3,-2.2197,-2.0464,-2,-2,-2.0761,-2.2226,-2.4001,-2.5964,-2.8122,-3.0507,-3.3132,-3.5993,-3.9074,-4.235,-4.5793,-4.9376,-5.3075,-5.6866,-6.073,-6.4649,-6.861,-7.2599,-7.6607,-8.0625,-8.4646,-8.8665,-9.2678,-9.6681,-10.067,-10.464,-10.86,-11.254,-11.646,-12.036,-12.424,-12.81,-13.194,-13.576,-13.956,-14.334,-14.71,-15.084,-15.456,-15.825,-16.193,-16.559,-16.923,-17.284,-17.644,-18.002,-18.358,-18.711,-19.063,-19.412,-19.76,-20.105,-20.449,-20.79,-21.129,-21.466,-21.8,-22.133,-22.463,-22.791,-23.116,-23.44,-23.761,-24.079,-24.395,-24.709,-25.021,-25.33,-25.636,-25.94,-26.241,-26.54,-26.837,-27.13,-27.422,-27.71,-27.996,-28.279,-28.559,-28.837,-29.112,-29.384,-29.654,-29.92,-30.184,-30.445,-30.702,-30.957,-31.209,-31.458,-31.704,-31.947,-32.187,-32.423,-32.657,-32.887,-33.114,-33.337,-33.557,-33.774,-33.987,-34.197,-34.403,-34.605
24.968,25.269,24.362,24,24.28,24.822,24.993,24,23,23.472,23.974,24,23.689,23,23.324,23.726,23.667,23.098,22.924,22.93,22.909,22.775,22.82,23,23.606,23.385,23,23,22,21.796,22.023,22.53,23,22.605,22.201,22,22.077,22,21,21.283,21,20.962,21.12,21.438,22,21.413,21,20.704,20.612,20.995,21,20.807,19.838,20.001,20.614,21,20.725,19,19.18,20.191,21.096,21,19,19.233,20,19.978,19.43,19,19.438,20.033,20,18,18.279,19.213,20.043,20,18,18,18.833,19.748,20,18,18,18.49,19,18.577,18.18,18,18.141,18,17,16.909,17,17.49,17.889,17.762,17,17,17.165,17,17,16.898,16.921,17,17.498,17,16,15.951,16.106,16.583,17,17,16,15,15.385,15.9,16.189,16.696,17,16.067,16,16,16,14,14.369,15,15.226,15.253,15,15.557,16,15,15,14,14.301,14.904,15.072,15,15,14,14.343,15,15.222,15,13,13.169,14,14.643,15,15,13.479,13.486,14,13.858,13,12.943,13.596,14,13,12,12.381,13,13.629,14,14,12,12,12.555,13.107,13,12,12,12.417,12.994,13.253,13,12.103,12,12.548,13,12.505,12,12,11,11.533,12,11,10.894,11,11.587,11.89,11,11,10,10.463,10.967,11.302,11,10.885,11,11,11.053,11,11,11,10,9.8885,9.9702,10,10,10,9,9.4723,10,10,10,10,8,8.3741,9,9,9,8,8.3069,8.9034,9,9.0297,8.9594,8.1764,8.4625,9,9.0545,9,9,8,7.7444,8,8,7.8636,7.0391,7,7.3969,7.9171,8,7.756,7,6.7527,7,7.6633,7.9404,8,8,8,7,7.5854,8,8,8,8,7,7.3812,8,8,8,7,7,7.2531,7.7406,8,8,8,7,7,7.5126,8,8,6,6,6,6.6495,7,7,6,6,6.0663,6.5208,7,6.7652,6,5.8494,6,6.1307,6.8479,7,5.2373,5,5.0672,5.3662,5.9062,6,5,5,5,5,5,5.6439,6,5.4244,5,4,4.0238,4.4975,5,4,4,3.9926,4.108,5,4.7796,4,4,4,4,3.7107,3,3.4838,4,4.0986,4,3,2,2.4386,3,4,4,4.0691,4,3.1411,3,3,3,3,3,3,2,2.637,3,3,3,3,2,2,2.4838,3,2,2,2,2,2,2.4711,3,2,2,1,1,1,2,2,2,2,1,1,1,1,2,2,2,1,1,1,0,1,1.669,2,2,0,0,0,0,1,1.629,1,0,0,0,0,0,0.79256,1,0,0,0,0,0,0.40916,1,0,0.053398,0,0.053398,0,-1,-0.64252,0,1,-1,-0.95063,-1,-0.9873,0,-0.30335,0,-0.14479,0,-1,-1,-1,-1,-1,0,0,-1,-0.88915,-1,-1,-1,-0.94291,-1,-1,-1,-2,-2,-2,-1.3059,-1,-1,-1,-1,-2,-1.8033,-2,-1.9344,-1,-0.7857,-1,-2,-2,-2,-2,-2,-1,-1,-2,-2,-2,-1,-3,-2.3701,-1.6261,-2,-2,-2,-2,-3,-2.9883,-2,-2,-1.9707,-1.9266,-2.1104,-2.307,-2.4795,-2.6468,-2.8286,-3.036,-3.2731,-3.5395,-3.8329,-4.15,-4.4873,-4.8413,-5.2089,-5.5873,-5.9742,-6.3676,-6.7657,-7.1671,-7.5706,-7.9753,-8.3803,-8.7851,-9.1892,-9.5921,-9.9935,-10.393,-10.791,-11.187,-11.581,-11.972,-12.362,-12.749,-13.134,-13.516,-13.897,-14.275,-14.651,-15.025,-15.396,-15.766,-16.133,-16.498,-16.861,-17.222,-17.581,-17.938,-18.293,-18.645,-18.996,-19.344,-19.691,-20.035,-20.377,-20.717,-21.054,-21.39,-21.723,-22.054,-22.383,-22.71,-23.034,-23.356,-23.676,-23.993,-24.308,-24.621,-24.931,-25.239,-25.544,-25.847,-26.147,-26.445,-26.74,-27.033,-27.323,-27.61,-27.895,-28.177,-28.457,-28.734,-29.008,-29.279,-29.548,-29.814,-30.077,-30.337,-30.594,-30.848,-31.1,-31.348,-31.594,-31.836,-32.076,-32.312,-32.545,-32.775,-33.001,-33.225,-33.445,-33.661,-33.874,-34.084,-34.29,-34.492
25.311,26,24.674,24,24.278,24.756,25,24,23,23.563,23.938,24.051,24,23.575,23.733,23.921,23.756,23.148,23,22.977,22.975,23,23,23.28,24,23.431,23,23,22.306,21.945,22,22.077,22,22.091,22,22,22.05,22,21.699,22,21.23,21,21.224,21.595,21.827,21.333,21,20.399,20,21,21.181,21,19,19.615,20.612,21,21,19,19.269,20.196,21,21,19.345,19.434,20,20,19.427,19,19.574,20,20,18,18.217,19.203,20,20,18,18.099,19,19.75,19.641,18,18.067,18.402,18,17.857,17.837,17.97,18.117,17.829,17,17,17.163,17.592,17.984,18,17.125,17,17.367,16.916,16.502,16.634,17.027,17.424,18,17.179,16,16,16.18,16.614,17,17,16,15.433,15.664,16,16,16.487,17,16.301,16,16,16,14.888,15,15,15,14.99,15.017,15.559,16,15.296,15,14,14.367,15,15.03,15,14.595,14.131,14.459,15,15,15,13.566,13.498,14,14.609,14.809,14,13,13.533,14,14,13,13.032,13.681,14,13,12,12.274,13,13.794,14,13,12,12.131,12.733,13.188,13,12,12.014,12.555,13,12.674,12,12,12.065,12.718,13,12,11.914,12,11,11.457,11.379,11,11,11,11.659,12,11,11,10.139,10.382,11,11.497,11,11,11,11,11,11,11,11,10,9.8581,10,10,10,10,9.48,9.7039,10,10.044,10,9.411,8.4146,8.6075,8.938,9,8.8073,8,8.3623,9,9,9,9,8,8.5719,8.9691,9,8.7544,8,7.8341,7.8526,8,8,8,7,7,7.4422,7.9,8,8,7,7,7.357,8,8,8,8,7,7.1353,8,8,8,8,7,7,7.5035,8,8,8,7.1101,7,7.4816,8,8,8,7,7,7,7.7759,8.3091,8,6,5.9536,6.3503,7,7,7,6,6,6,6.5585,7.0211,7,6.1417,6,5.9161,6,6.8761,7,5,5,5,5.5509,6,5.5318,5,5,4.9618,4.9019,5,5.6029,5.4343,5,4,4,4,4.7259,4.9124,4,3.9524,4,4,5,4.7248,4,4,4,4,4,3.5526,3.7393,4,4,4,3,2.544,3,3,4,4,4,4,3,3,3,3,3,3,2,2,2.5799,3,3,3,3,2,2,2.5872,3,2,2,2,2,2,2.6268,3,2,2,1,1,1,1.7346,2,2,1,1,1,1,1.15,2,2,1,1,1,1,0,1,1.8495,2,1,0,0,0,0,1.2534,2,0,0,0,0,0,1,1,0,0,0,0,0,0,0.10609,0,-1,0,0,0,0,0,0,0,0,-1,-1,-1,-1,0,0,0,-1,-1,-1,-1,-1,-1.0312,-1,-0.74475,-1,-1.0738,-1,-1,-0.95173,-0.96519,-1,-1,-1,-1,-2,-2.1834,-2,-1.2068,-1,-1,-2,-1,-2,-2,-2,-2,-1,-1,-2,-2,-2.0459,-2,-2.0814,-2,-1.3251,-2,-3,-2.4,-2,-2,-3,-1.959,-1,-2,-2,-2,-3,-3,-3,-2,-1.9006,-2,-2,-2.3294,-2.5088,-2.6181,-2.7246,-2.8584,-3.0304,-3.2418,-3.49,-3.7706,-4.0791,-4.4107,-4.7613,-5.1272,-5.5052,-5.8927,-6.2872,-6.6869,-7.0903,-7.496,-7.9029,-8.3102,-8.7172,-9.1234,-9.5283,-9.9316,-10.333,-10.732,-11.129,-11.524,-11.917,-12.307,-12.695,-13.08,-13.463,-13.843,-14.221,-14.597,-14.971,-15.342,-15.711,-16.078,-16.442,-16.804,-17.165,-17.522,-17.878,-18.232,-18.583,-18.933,-19.28,-19.625,-19.968,-20.309,-20.647,-20.984,-21.318,-21.65,-21.979,-22.307,-22.632,-22.955,-23.276,-23.594,-23.91,-24.224,-24.535,-24.844,-25.15,-25.455,-25.756,-26.055,-26.352,-26.646,-26.938,-27.227,-27.513,-27.797,-28.079,-28.357,-28.633,-28.907,-29.177,-29.445,-29.71,-29.973,-30.232,-30.489,-30.743,-30.994,-31.242,-31.487,-31.729,-31.968,-32.204,-32.436,-32.666,-32.892,-33.115,-33.335,-33.552,-33.765,-33.974,-34.18,-34.382
24.663,24.784,24,23.857,24.177,24.285,24,23.854,23.517,24,24.011,24,23.672,23.678,24.048,24.197,24,23,22.896,23,23.01,23,23,22.529,22,22.577,22.935,22.973,22.447,22,22,21.987,21.995,22.012,22,22.013,21.99,22,21.921,21.863,21,20.991,21.275,21.667,21.717,21,20.916,20.545,20.383,20.885,21,21,19.731,20.032,21,21,20,19.304,19.629,20.226,20.796,21,19,19.531,20,19.859,19.548,19.524,20,20,18,17.617,18.307,19.393,20.157,20,18.428,18.331,19,19.865,20,18.446,18.511,19,18.117,17.468,17.573,18,18.314,18,17.14,17,17.229,17.647,18,18,17,17.316,18,17.041,16,16.36,17,17.138,17,17,16,15.879,16.106,16.586,17,17,16.31,15.907,16,16,16,15.6,15,15.578,16,16,15,14.789,14.962,15,15,14.951,15,15.285,15.37,15,14.889,14.161,14.54,15,14.578,14.336,14,14,14.439,14.761,14.421,13,13,13.592,14,14.575,15,14,13.578,14,14,13,12.763,13,13.63,13.543,12,11.821,12.363,13.23,14,13.953,13,12.132,12.302,12.86,13,12,11.75,12,12.694,13,12.491,11.973,12,12,12.847,13,12.241,12,12.001,11.797,12,11,11,11,11,11.469,11,11,11,10,10.385,11.226,12,11,11,11,11,10.999,11.004,11,10.815,10,9.87,9.9581,10,10.009,10,9.8552,10,10,10,10,9,8.722,9,9,9.0649,9,8.212,8.4984,9,9.0751,9,8,8.1185,9,9.0745,9,9,8,8,7.976,8,8,8,7,7,7.5403,8,8,8,7,7,7.5019,8,8,8.15,8,7,7.2711,7.9115,8,8,8,7,7.1639,7.7123,8,7.9476,7.458,7,7.2006,7.6999,8,8,7.8579,7,6.9618,7.3263,8,8,6,5.6446,6,6.5616,7,6.7614,6,5.7853,5.8439,6,6.6662,7,7,6,6,6,6.3502,7,6.8449,5,5,5,5.6703,6,5,5,5.0038,5,5,5.5265,6,5,5,4,4,4.3567,5,5,4,4,4,4,5,4.8135,4,4,4,4,4,3.8882,4,4,4,4,3,2.7078,3,3,3,4,4,4,3,3,3,3.015,3,2.8913,2,2.1581,2.7273,3,3,2.7524,2,1.8027,2,2.3592,2,1.684,1.5049,2,2,2,2.6624,3,2,1.4547,1,0.9057,1,1.7116,2,2,1,1,1,1,1,2,2,1,1,1,0,0,0.99499,2,2,1,0,-0.12956,0,0,1.3925,2.211,1,0,-0.037655,0,0.23362,1,0,0,-0,0,0,0.056471,0.012646,0,0,-1,0,0,0,0,-1,-1,0,0,-1,-1,-1,-1,-0.2964,0,-1,-1,-1,-1,-2,-2,-1.296,-1,-1,-1,-1,-2,-1,-1,-1.197,-2,-2,-1.2,-1,-2,-2,-1.5634,-1,-2,-2,-2,-1,-1,-2,-1.9733,-1.7227,-1,-1,-1.8,-2,-2,-2,-2,-2,-1,-1.5175,-2,-2,-2,-2,-2,-1.434,-1,-3,-3,-2,-3,-3,-2.7938,-2,-2,-2,-3,-2.9303,-2.8221,-2.7761,-2.7964,-2.8793,-3.0195,-3.2105,-3.4454,-3.7174,-4.0204,-4.3486,-4.6974,-5.0626,-5.4408,-5.8289,-6.2245,-6.6256,-7.0305,-7.4377,-7.8463,-8.2552,-8.6637,-9.0713,-9.4774,-9.8818,-10.284,-10.684,-11.082,-11.478,-11.871,-12.261,-12.649,-13.034,-13.417,-13.797,-14.175,-14.55,-14.923,-15.293,-15.661,-16.027,-16.391,-16.752,-17.111,-17.468,-17.823,-18.175,-18.525,-18.873,-19.219,-19.563,-19.904,-20.244,-20.581,-20.916,-21.249,-21.579,-21.908,-22.234,-22.558,-22.879,-23.198,-23.515,-23.83,-24.142,-24.452,-24.76,-25.065,-25.368,-25.669,-25.967,-26.262,-26.555,-26.846,-27.134,-27.42,-27.703,-27.983,-28.261,-28.536,-28.808,-29.078,-29.345,-29.61,-29.872,-30.13,-30.387,-30.64,-30.89,-31.138,-31.383,-31.624,-31.863,-32.099,-32.331,-32.56,-32.787,-33.01,-33.229,-33.446,-33.659,-33.868,-34.074,-34.277
24.169,24,24,24,24.461,24.362,24,24,23.39,23,23.509,23.65,23,23.345,24,24.115,24,23,22.877,23,23.024,23,22.901,22.418,22.036,22.532,23.084,23,22.481,22.112,22,21.892,22,21.988,22.039,22,21.736,21.561,21.825,22,21.272,21,21.222,21.784,22,21,21,20.736,20.73,21,21,20,19.649,20,20.784,20.859,20.009,19.714,20,20,19.708,19,19.038,20,20,19.557,19.422,19.7,20.141,20,18.357,18,18.668,19.61,20,18.978,18,18.385,19.101,19.756,20,18,18.443,19,18.026,17,17.361,18.133,18.631,18,17,17,17.233,17.655,18,18,17,17.18,17.547,17,16,16.331,17,17.113,17.016,17,16.118,15.827,16,16.532,16.955,16.922,16.332,15.999,16,16.011,16,15.574,15.228,15.659,16,15.845,14.96,14.885,15,15.078,15.074,14.952,14.971,15.142,15,15,15,14,14.667,15,14,13.874,14,14.238,14.691,15,15,13,13.139,14,14,14,14.261,14.049,13.918,14,14,13.124,13,13.384,14,14,12,12,12.584,13.434,14.022,14,12.971,12,12.381,13,13,12.203,12,12.435,13,13,12.155,11.824,12,12.442,13,12,12,12,12,12.145,12,11,10.928,11,11.435,12,11,10.851,10.667,10,10.386,10.859,11,10.906,11,11,11,11,11,11.05,11,10.362,10.05,10,10.001,10,10,9.9277,10,10.011,10,9.8496,9,8.9472,8.9809,9,9,9,8,8.5945,9,9,9,8,8.2615,9,9,9,9,8,7.944,8,8,8,7,7,7.257,7.7474,8,8,7,6.7771,7,7.6363,7.9543,8,8,7,7,7.4691,8,8.0825,8,7.5042,7,7.3823,8,8,8,7,7,7.4628,8,8.1404,8.2088,8,7.2313,7,7.5265,8.0703,8,6,6,6.3193,6.8153,7.0708,7,6.1418,6,6,6.3691,7,7,6,6,6,6,6.5389,7,7,5,5,5,5.7957,6,5,5,5,5,5,5.8174,6,5,4,4,4,4.3262,4,4,4,4,4,4,4.8699,5.2488,5,4,3.9567,4,4,3.9797,4,4,4,4,2.6744,2.5517,3,2.9768,3,4,4,3,2.8889,3,2.9041,3,3,3,2,2.3603,3,3,3.0748,3,2,2,2.4172,3,3,2,1,2,2.0749,2.2735,2.5314,2,2,1,1,1,1.3599,2,2,1.5106,1,0.98825,1,0.92764,1,1.821,1.5129,1.1033,1.1352,1.2989,1,0,0.94262,1.9534,2,1.4465,1,0,-0.12962,0,1.3918,2,0,-0.19392,0,-0.046349,0,0.72896,0,0,0,0,0,0,-0.014129,0.12609,0.25114,0,0,0,-0.22351,-1,-1,-1,0,0,-0.79812,-0.92139,-1.0551,-1,-0.88353,-1,-1.1433,-1,-1.2512,-2,-2,-1.701,-1,-1,-1,-1,-1,-2,-2,-1.2929,-1,-2,-2,-1,-1,-2,-2,-1.5116,-1,-2,-2,-2,-1,-2,-2,-2,-1.9503,-2,-2,-2,-2,-2,-2,-2,-2,-2,-2,-3,-2,-1.75,-2,-3,-2,-1.8111,-3,-2.9094,-2,-3,-3.568,-3.2637,-2.8111,-3,-2.7593,-3,-3.0023,-2.8969,-2.8167,-2.8042,-2.8643,-2.9902,-3.1728,-3.4028,-3.6721,-3.9736,-4.3014,-4.6502,-5.0159,-5.3947,-5.7837,-6.1803,-6.5825,-6.9884,-7.3966,-7.8061,-8.2159,-8.6251,-9.0334,-9.4401,-9.8449,-10.248,-10.648,-11.046,-11.441,-11.834,-12.224,-12.611,-12.996,-13.378,-13.758,-14.135,-14.509,-14.881,-15.25,-15.618,-15.982,-16.345,-16.705,-17.063,-17.418,-17.771,-18.122,-18.471,-18.818,-19.162,-19.505,-19.845,-20.183,-20.518,-20.852,-21.183,-21.512,-21.839,-22.164,-22.486,-22.806,-23.124,-23.44,-23.753,-24.064,-24.373,-24.679,-24.983,-25.285,-25.584,-25.881,-26.176,-26.467,-26.757,-27.044,-27.329,-27.611,-27.89,-28.167,-28.441,-28.713,-28.982,-29.249,-29.512,-29.774,-30.032,-30.287,-30.54,-30.79,-31.037,-31.282,-31.523,-31.761,-31.997,-32.229,-32.458,-32.684,-32.907,-33.127,-33.343,-33.556,-33.766,-33.972,-34.175
24.258,24,24,24.373,25,24.657,24.25,24,23.471,23.188,23.653,24,23,22.9,23,23.357,23.393,23,22.917,22.988,23.025,23.034,23,22.561,22.184,22.52,23,22.282,22.087,22,21.854,21.435,21,21.666,22,22,21.476,21,21.557,21.786,21,20,20.727,21.659,22,21,20,20.522,20.828,21,21,20,19.764,20.038,20.723,21,20,19.882,20.015,20,19.434,18.922,19.285,20,19.938,18.935,18.954,19.523,19.996,19.647,18.368,18.231,18.962,19.753,19.636,18,18,18.618,19,18.745,18,18,18.517,18.841,18,17,17.329,18.231,19,18,17,16.879,17.128,17.611,18,17.864,17,17.005,17.199,17,16.192,16.381,17,17.099,17,17,16,15.741,16,16.559,17,16.913,16,15.809,16,16,16.108,15.763,15.654,16,16.117,16,15,15.18,15,15.09,15,14.848,15,15.381,15,15,14,14.142,15,15,14,13.654,13.934,14.437,15,15.371,15,13,13.228,14,14,13,13.51,14,14.138,14,13.741,13,13.027,13.517,14,14,12.44,12,12.76,13.653,14,14,13,12,12.518,13,12,12,12,12.701,13,11,11,11.402,11.983,12.632,13,12.244,12,12,12,12.319,11.513,11,11,11,11.367,11.443,11,10.925,10.862,10.564,10.783,10.937,11,11,11.009,11,11,11,11,11,11,10.455,10.105,10,10,10,9.5675,9.7409,10,10,10,10,9.5244,9.4541,9,9,9,8,8.1551,9,9,9,9,8,8.3267,8.8506,9,9,9,8.2085,8.0204,8,8.0137,7.9146,7.0229,7,7.4942,8,8,7.9,7,7,7.4106,8,8,8,8,7.108,7.2091,7.7042,7.9807,8,7.7958,7,6.93,7.4711,8,8.0764,8,7,7,7.649,8,8,8,7,7,7,7.6891,8,8,6,6,6.4782,7,7,7,6,6,6,6.4873,7,7,6,6,6,6,6.7471,7,5,5,5,5.3973,6,5.5519,5,4.9724,5,5,5.4323,6,5,5,4,4,4.4858,5,4.1791,3.962,3.9758,4,4,4.1166,4.6934,5,4,3.8502,4,4.0826,4.0437,4.0162,4,4.0006,4,3.4944,2,2.2604,2.7932,3,3.1627,4,4,3.2175,3.3882,4,3,3,2.7561,2,1.8771,2.4876,3,3,3,3,2.2262,2,2.4751,2.7089,2,2,1.3748,2,2,2.5791,3,2,1.8534,1,0.93158,1,1.5151,2.0195,2,1,0.90021,1,0.9982,1,1.3263,2,1,1,1,1,0,-0.06101,1.0353,2,1.5582,1,0,-0.14953,0,0.37943,1,0,0,0,0,0,0,1,0,0,0,0,0,-1,-0.37855,0,0,-1,-0.25,0,0,-0.76486,-0.95368,-0.88524,-0.12712,-0.17677,-1,-1,-1.3796,-1.3119,-1.1402,-1,-1,-1,-1,-1.9168,-2,-1.4617,-0.92694,-1,-1,-0.9079,-1,-2,-1.9385,-1.3333,-1.2931,-2,-1.9044,-1,-1,-3,-3,-2.0454,-1.4249,-2,-2,-2,-2,-3,-3,-2.4145,-2,-2,-2,-2,-2,-3,-3,-3,-2,-2,-2,-3,-2,-2,-3,-3,-2,-2,-3,-3,-2,-2.6413,-4,-3.4863,-3,-3,-3,-3,-2.9272,-2.8186,-2.7466,-2.7421,-2.8092,-2.9412,-3.129,-3.3633,-3.6361,-3.9405,-4.2705,-4.6211,-4.9883,-5.3683,-5.7583,-6.1557,-6.5584,-6.9648,-7.3734,-7.7831,-8.1929,-8.6022,-9.0102,-9.4167,-9.8211,-10.223,-10.623,-11.02,-11.415,-11.807,-12.196,-12.582,-12.966,-13.347,-13.726,-14.101,-14.475,-14.845,-15.214,-15.579,-15.943,-16.304,-16.662,-17.019,-17.373,-17.724,-18.074,-18.421,-18.766,-19.109,-19.45,-19.789,-20.125,-20.459,-20.791,-21.121,-21.448,-21.774,-22.097,-22.418,-22.737,-23.053,-23.367,-23.679,-23.989,-24.296,-24.601,-24.904,-25.205,-25.503,-25.798,-26.092,-26.383,-26.671,-26.957,-27.241,-27.522,-27.8,-28.076,-28.35,-28.621,-28.889,-29.155,-29.418,-29.678,-29.936,-30.191,-30.444,-30.693,-30.94,-31.184,-31.425,-31.663,-31.898,-32.13,-32.359,-32.585,-32.808,-33.028,-33.244,-33.458,-33.667,-33.874,-34.076
24.519,24,24.007,24.214,24.461,24.369,24.189,23.919,23.514,23.233,23.636,24,23.131,22.939,22.868,22.982,23,22.946,22.952,23,23.008,23,23.021,22.676,22,22,21.839,21,21.645,22,22,21.658,21.5,22,22,22,21.552,21.376,21.816,22,21,20.104,20.709,21.682,22,21,20.459,21,21.073,21,20.919,20.367,20.056,20,20.565,21,20.248,20.128,20,20,19.351,19,19.557,20.18,20,18,18.381,19.325,20,19.597,18,18.18,19.116,20,20,18,18.224,19,19,18.427,18,18,18.69,19,18,17,17.162,17.737,18,17.757,17,16.809,17,17.528,18,18,17.152,16.943,17,17,16,16.172,16.714,17,17,16.969,16,15.625,15.965,16.59,17.089,17,15,15.419,15.837,16,16,15.562,15.665,16,16,16,15.705,16,15.326,15,14,14.505,15.32,16,15,15,14.119,14.389,15,14.562,13,13.181,13.82,14.511,15,15,13,12.654,13.306,14,13.931,13.073,13.368,14,14.5,14.327,13.88,13.08,13,13.454,13.402,12,12,12.22,13.065,14,14,13,13,12.604,12.852,13,12,12,12.114,12.81,13,11.223,11,11.361,12,12.677,13,12.314,12,12,12.614,13,11,11,11,11.26,11.48,11,10.928,11,11,10.763,11,10.971,11.044,11,11,11,11,11,11,11,10.524,10.178,10,10,10,10,9,9.5889,10,10,10,9,9.5031,10,9,9,9,8.2375,8.4474,9,9,9,8.535,8.2497,8.6315,8.898,9,8.9942,8.4729,8,8.0799,8,8,8,7,7.1756,7.7122,8,8,8,7,7,7.622,7.9684,8,8.1516,8,7,7.4041,8,8,8,8,7,7,7.6455,8,8,8,7,7.2808,8,8,8,8,7,7,7.3184,8,8,7.4781,6.3411,6.1714,6.5264,7,7,6,6,5.9895,6,6.4972,6.6647,6,6,6.0095,6.0435,6.3516,7,7.1577,6,5,5.0156,5.5983,6,5,5,5,5,5.0814,5.6448,6,5,5,4,3.9327,4.6331,5,4,4,4,4,3.9778,4,4.2791,4.3799,4,4,4,4,3.9588,4,3.9878,4,4.2511,4,4,3,3,3,3,4,4,3,2.9891,3,3,3,3,2,2,2.7513,3,3,3,2,2,2,2.715,3,2,1,1,2,2,2.6879,3,2,2,1,1,1,1.6497,2,2,1,1,1,1,0.98881,1,1,1,1,1,1,0,0,1.1392,2,1,1,0,0,0,0.58012,1,0,0,0,0,0,0,0,0,0,0,0,0,-0.40344,0,0,0,-1,0,0,-1,-1,-1,-1,0,0,-1,-1.6389,-2,-1.5419,-1,0,-1,-1,-1,-2,-1.8499,-1.2284,-1,-2,-1,-1,-1.421,-2,-1.7649,-1,-1,-1,-2,-1.8096,-2,-2,-2.1605,-1.7876,-1,-1,-2,-2.2717,-2,-3,-3,-2.3954,-2,-2,-2,-2,-3,-3,-2.5592,-2,-2,-2,-2,-3,-3,-3,-3.2752,-3,-2,-2,-3,-3,-2.1811,-2,-3.095,-3,-3,-2.85,-3,-3,-2.8017,-2.6661,-2.6132,-2.6379,-2.7312,-2.8841,-3.0873,-3.333,-3.6141,-3.9244,-4.2586,-4.6123,-4.9815,-5.3629,-5.7537,-6.1515,-6.5543,-6.9605,-7.3687,-7.7778,-8.1869,-8.5953,-9.0023,-9.4077,-9.811,-10.212,-10.61,-11.006,-11.4,-11.79,-12.178,-12.563,-12.945,-13.324,-13.701,-14.075,-14.447,-14.816,-15.183,-15.547,-15.908,-16.268,-16.625,-16.979,-17.332,-17.682,-18.03,-18.375,-18.719,-19.06,-19.399,-19.736,-20.071,-20.403,-20.734,-21.062,-21.388,-21.712,-22.033,-22.353,-22.67,-22.985,-23.298,-23.608,-23.917,-24.223,-24.526,-24.828,-25.127,-25.424,-25.718,-26.011,-26.3,-26.588,-26.873,-27.155,-27.436,-27.713,-27.988,-28.261,-28.531,-28.799,-29.064,-29.326,-29.586,-29.844,-30.098,-30.35,-30.599,-30.845,-31.089,-31.33,-31.568,-31.803,-32.035,-32.264,-32.49,-32.713,-32.932,-33.149,-33.362,-33.572,-33.779,-33.982
24.33,24.086,24,23.873,23.711,23.835,24,23.874,23.594,23,23.347,23.629,23,23.24,23,22.938,23,22.991,23,23.009,23.014,23.055,23.174,23,22,22,21.728,21.46,22,22,22,21.868,21.85,22.064,22,21.594,21.364,21.541,22,22.052,21,20,20.774,21.822,22,20.777,20.494,21,21.186,21.178,21.056,20.762,20.476,20,20.149,20.277,20,20.409,20,19.478,19.068,19,19.706,20,19,17.91,18.363,19.352,20,20,18,18.172,19,19.421,19,18,18.379,19,18,17.884,17.979,18.341,18.932,19,18,17.067,17.15,17.649,18,18,17.154,16.85,17,17.422,17.841,17.798,17,16.898,17,16.852,16,16.054,16.541,16.94,17,17,15,15.185,15.84,16.536,17,17,15.898,16,16,16,14,14.539,15.348,16,16,15.584,15.561,15.618,15,15,14.167,14.546,15.377,15.798,15,15,14,14.531,15,15,13.598,13.419,14,14.681,15,15,13.183,13,13.677,14.147,14,13,13.457,14.324,15,14.544,14,13,13,13.78,14,12,12,12.361,13.111,13.91,14,13.107,12.998,12.909,13,13,12,12,12,12.714,12.682,11,11,11.4,12,12.523,12.494,12,12,12.124,12.871,12.863,11,10.878,11,11.587,12,11,10.971,11,10,10.026,10,10.508,11,11,11,10.997,11,11,11,11,10,9.906,10,10,10,10,9.5431,10,10,10,9.817,9,9.576,10,9,8.683,8,8,8.601,9,9.1149,9,8,8.3334,9,9,9,9,8,8,8.4379,8.1172,8,7,7,7.417,8,8.0122,7.7605,7,6.8863,7.2956,8,8,8,8,7,7,7.6293,8,8,8,8,7,7.3085,8,8,8,7,7,7.4204,7.9599,8.0129,8,8,7,7,7.1825,7.3269,7,6.7259,6.2284,6.0995,6.2275,6.3145,6,5.3777,5.4835,6,6.3732,6.8541,7,6,5.9405,6,6,6.5098,7,7,5,5,5,5.6656,5.8313,5,4.9625,5,4.918,5,5.7149,5.9661,5.2754,5.3119,5,4,4.6509,4.447,4,4,4,4.0041,4,3.9616,4,4,4,4,4,3,3.6264,4,4,4,4,2,2.8138,3,3,3,3,4,3,3,3,3,3,3,3,2,2.3797,3,2,3,3,2,2,2.3328,3,3,2,1,1,2,2.386,2.8962,3,2,1,1,1,1.3516,2,2,1,1,1,1,1,1.0435,1,1,1,1,1,1,0,0.33913,1,1,1,1,0,0,0,0.67769,1,0,0,0,0,0,-6.2804e-07,0,0,0,0,0,0,-0.10461,0,0,0,-1,-1,0,-1,-1,-1,-1,0,0,-1,-2,-2,-1.3776,-1,-1,-1,-1,-1,-2,-1.6847,-1,-1,-2,-1,-1,-2,-3,-2.1367,-1,-1.1785,-2,-2,-2,-2,-3,-2,-2,-1.2674,-2,-2.653,-3,-2.13,-2,-2.204,-2,-2,-2,-2.5676,-3,-3,-2.5764,-2.1672,-2,-2,-2,-3,-3,-2.967,-3,-3.1881,-3,-2,-2,-3.1,-3,-3,-4,-3.488,-3,-3,-3,-4,-3,-2.6337,-2.4912,-2.4703,-2.533,-2.6599,-2.839,-3.0618,-3.3217,-3.6128,-3.9302,-4.2693,-4.6263,-4.9975,-5.38,-5.7712,-6.1688,-6.571,-6.9762,-7.3831,-7.7907,-8.1981,-8.6047,-9.0099,-9.4133,-9.8146,-10.214,-10.61,-11.004,-11.395,-11.783,-12.169,-12.552,-12.932,-13.309,-13.684,-14.056,-14.426,-14.793,-15.158,-15.52,-15.88,-16.237,-16.592,-16.945,-17.296,-17.644,-17.99,-18.334,-18.675,-19.015,-19.352,-19.687,-20.02,-20.351,-20.68,-21.006,-21.331,-21.653,-21.973,-22.291,-22.606,-22.92,-23.231,-23.54,-23.847,-24.152,-24.454,-24.755,-25.052,-25.348,-25.641,-25.932,-26.221,-26.507,-26.791,-27.073,-27.352,-27.629,-27.903,-28.175,-28.445,-28.712,-28.976,-29.238,-29.497,-29.754,-30.008,-30.259,-30.508,-30.754,-30.997,-31.238,-31.475,-31.71,-31.942,-32.171,-32.397,-32.62,-32.84,-33.057,-33.27,-33.48,-33.687,-33.891
23.95,24,23.915,23.651,23,23.333,23.817,24,24.113,23,23.356,24,23.852,24,23,22.89,23,23.017,23.008,23,22.978,23,23.173,23,22,22,21.794,21.768,22,22.012,22,21.975,21.992,22.046,21.888,20.899,20.866,21.405,22,22,20,19.906,20.934,22,21.738,20,20.098,20.737,21.134,21.204,21,20.971,21,20.189,19.956,20,20.356,21,20,19,18.941,19.311,20,20,18.878,18,18.644,19.627,20,19,17.981,18.295,19,19.145,18.728,18,18.326,18.581,17.952,17.768,18.025,18.553,19,18.623,18,17,17.231,17.753,18.025,18,17,16.798,17,17.287,17.782,18,17.362,17.014,17,17,16,15.954,16.472,17,17,17,15.737,15.571,16,16.562,17,17,16.151,16,16,16,14.651,14.706,15.379,16.002,16,15,15.335,15.546,15,14.748,14,14.575,15.534,16,15.215,14.602,14.385,15,15.17,15,13.641,13.522,14.215,15,15.271,15,13,13.181,14,14,13,13,13.613,14.453,14.829,14,13,13,13.341,14,14,12,12,12.384,13,13.75,14,13,13,12.981,12.734,12,11.818,11.966,12.368,13,13,11,10.932,11.505,12.223,12.633,12.244,12,11.872,12,13.075,13,11,11,11,11.59,12,11,11,11,10,10.185,10,10.306,11,11.072,11,10.993,10.998,11,10.998,10.897,10.217,9.9543,10,10,9.672,9,9.414,10,10.06,10,10,9.5415,9.8336,9.8658,9,9,8.1702,8.3181,9,9.0894,9,8.4613,8,8.4543,9,9,8.75,8,8,8.3994,9,8,8,7,7,7.4864,8,8,8,7,7,7.4393,8,8,8,8,7,7.2528,8,8,8,8,8,7,7.549,8,8.1183,8,7.137,7.042,7.5289,8,8,8,7.577,7,7,7.0611,7,6.8742,6.3462,6.0236,5.9619,6,6,6,5,5,6,6.5325,7,7,6.1597,6,5.9258,6,6.7315,7.1916,7,5,4.9313,5.3482,6,6,5,5,5,5,5.4003,6,6,5,5,4,4.1362,5,4,4,4,4,4,4,3.9828,4,4,4,4,4,3.5493,4,4,4,4,4,2,2.5346,3,3,3,3,4,3,2.9335,3,3,3,3,2,2,2.5804,3,2,2.6,2,2,2,2.4498,3,3,2,0.95064,1,1.9196,2.5435,3,3,3,1,0.86766,1,1.4915,2.0235,2,1,0.95303,1,0.93949,1,0.99488,0,0.69121,1,1.024,1.0562,1.1213,1,1,1,0.93735,1,1,0,0,0.2719,0.8545,1,0,-0.05,0,0,0,0,0,-0.0050125,0,0.10025,0,0,-0.011,0,0,-1,-1.1681,-1,-0.63869,-1,-1.016,-1,-1,0,0,-2,-2,-1.7359,-1,-1,-1,-1,-1,-1,-2,-1.5497,-1,-1,-2,-1,-1,-2,-3,-2.2164,-1,-1,-2,-2,-2,-2,-2,-2,-2,-1,-3,-3,-3,-2,-2,-2,-2,-2,-2.5548,-3,-2.7688,-2,-1.9339,-2,-2.9366,-3,-3,-3,-4,-3,-2.7363,-3,-3,-2.6339,-3,-4,-3,-3,-3,-3,-3,-2,-4,-4,-3,-2.5466,-2.3852,-2.3826,-2.4736,-2.6273,-2.8282,-3.0676,-3.3397,-3.6396,-3.9631,-4.3064,-4.6658,-5.0383,-5.4212,-5.8119,-6.2084,-6.609,-7.0123,-7.417,-7.8221,-8.2269,-8.6307,-9.0331,-9.4336,-9.832,-10.228,-10.622,-11.013,-11.401,-11.787,-12.17,-12.55,-12.928,-13.302,-13.675,-14.045,-14.412,-14.777,-15.139,-15.499,-15.857,-16.212,-16.565,-16.915,-17.264,-17.61,-17.954,-18.296,-18.636,-18.973,-19.309,-19.642,-19.973,-20.302,-20.629,-20.954,-21.277,-21.597,-21.916,-22.232,-22.546,-22.858,-23.168,-23.475,-23.781,-24.084,-24.385,-24.684,-24.981,-25.275,-25.567,-25.857,-26.145,-26.43,-26.713,-26.993,-27.272,-27.548,-27.821,-28.092,-28.361,-28.627,-28.891,-29.152,-29.411,-29.667,-29.92,-30.171,-30.42,-30.665,-30.908,-31.149,-31.386,-31.621,-31.853,-32.082,-32.308,-32.531,-32.751,-32.968,-33.181,-33.392,-33.599,-33.803
23.565,23.734,24,24.086,23,23.266,24,24.53,25,23,23.322,24,23.878,23.552,23,22.886,22.975,23.023,23,23,22.921,23,23.14,22.916,22,21.507,21.65,21.925,22,22,22.005,22.022,22.032,22,22,20,20.315,21.217,21.993,22,20.189,20.165,21.127,22,22,20,20.132,20.741,21.105,21,20,20.587,21,20,19.824,20,20.109,20,19.775,19,19.03,19.492,19.991,19.936,19.014,18.613,19.182,20,20,18.866,18,18.501,19.01,19.121,19,18.594,18.654,18.655,18.003,17.681,18,18.567,18.752,18,17.812,17.417,17.569,18,18,18,17,16.786,16.882,17,17.558,18,17.435,17,17,17,15.685,15.716,16.368,17,17.189,17,16.152,15.901,16,16.357,16.312,15,15.418,15.871,16,15.507,15.014,15,15.502,16,15.79,15.114,15.627,16,15.289,15,14,14.716,15.714,16,15,14,14.381,15,15,14.616,13,13.339,14.285,15,15,14,13,13.303,14,14,13.05,13,13.748,14.63,15,14,13,13,13.52,14.023,13.936,12.259,12.021,12.456,13,13.44,13.505,13.018,13,13.201,13,12.135,12,12,12.586,13,12,11,11,11.686,12.549,13,12,12,12,12.498,13,11,11,11,11,11.232,11,10.84,11,11,10.745,11,10.234,10,10.628,11,11,10.998,11,11,11,11,10.41,10,10,10.06,10,9.513,9.7049,9.9727,10,9.7247,9,9.4145,10.017,10,9.3126,9,8,8.3869,9,9,9,8,8,8.6305,8.9568,9,9,8,8,8.154,8,8,8,7,6.9781,7.5202,8,8,8,7.2276,7,7.4488,7.9323,8,8,8,7,7.3255,7.9328,8.0016,8,7.7471,7,7.1845,8,8,8,7.4745,7,7,7.6521,8,8,7.8835,7,6.5232,6.7206,7,7,7,6,5.81,5.9011,6,6,5.5,5,5,5,6.1715,7,7,6,6,6,6.3516,7,7,6,5,5,5.5795,6,5.5402,5,5,5,5,5.6691,6,5,5,5,4,3.8513,4,4,3.9999,4,4,4,4,3.9954,4,4,3.9461,4,3.6314,3.6104,4,4,4,4,4,2.8577,3,3.0515,3,3.0177,3,3.3686,3,2.9928,3,3,3,2.471,1.9275,2,2.6692,3,2,3,2,2,2,2.5115,3,3.4199,3,1,1.0338,2,2.5829,3,3,2,1,1,1.0776,1.5539,2,2,1,1,1,1,1.6311,2,0,1,1.0785,1,1,1,1,1,1,1,1.1265,1.3006,1,0,0.46324,1,1,0,0,0,1.3119e-05,0,1.2561e-05,0,0,0,0,-1,-1,-0.22332,0,0,-1,-1,-1,-1,-1.0211,-1,-1,-1,0,0,0,-2,-1.7648,-1,0,-1,-1,-1,-2,-1,-1.0458,-1,-0.79771,-1,-1,-1.1674,-2,-2,-2,-1,-1,-2,-2,-2,-2,-2,-2,-2,-1,-2,-3,-3,-2,-2,-2,-2,-2,-3,-3,-3,-3,-2.1622,-2,-4,-3,-3,-3.2,-4,-3,-2.3795,-3,-3.2995,-3,-3.3617,-4,-3.1979,-3,-3,-3,-3.25,-4,-4,-3.8678,-3,-2.5414,-2.3799,-2.3878,-2.4922,-2.6581,-2.8693,-3.1171,-3.3957,-3.7005,-4.0274,-4.3728,-4.7332,-5.1057,-5.4876,-5.8767,-6.271,-6.6689,-7.0691,-7.4705,-7.872,-8.2732,-8.6732,-9.0718,-9.4686,-9.8632,-10.256,-10.646,-11.033,-11.418,-11.8,-12.18,-12.557,-12.931,-13.303,-13.673,-14.04,-14.404,-14.766,-15.126,-15.484,-15.839,-16.192,-16.542,-16.891,-17.237,-17.581,-17.923,-18.262,-18.6,-18.936,-19.269,-19.6,-19.93,-20.257,-20.582,-20.905,-21.226,-21.545,-21.861,-22.176,-22.488,-22.799,-23.107,-23.413,-23.717,-24.019,-24.319,-24.616,-24.912,-25.205,-25.496,-25.784,-26.071,-26.355,-26.637,-26.917,-27.194,-27.469,-27.742,-28.012,-28.28,-28.545,-28.808,-29.069,-29.327,-29.583,-29.836,-30.086,-30.334,-30.58,-30.822,-31.063,-31.3,-31.534,-31.766,-31.995,-32.221,-32.445,-32.665,-32.882,-33.096,-33.307,-33.515,-33.719
23,23.525,24.391,25,23,23.251,24,23.788,23,23,23.367,23.833,23.656,23,22.818,22.852,22.979,23.045,23,22.612,22.61,22.861,23.113,23,21.861,21,21.664,22.305,22.199,22,22.012,22.06,22.091,22,21.618,20,20.397,21.285,22,22,20,20.387,21.354,22,21,20.301,20.575,21,21.177,21,20,20.553,21,20,19.702,20,20.171,20.179,20,19,19.164,19.654,20,20,19,18.978,19.49,20.009,19.96,19,18.65,19,19,18.948,19,18.952,18.991,19,18,17.438,18,18.701,19,18,18,17.763,17.708,18,18,17.872,17.241,16.95,17,17,17.037,17,17.011,17,17.099,17,15,15.49,16.333,17,17,16.136,15.868,16,16,16.449,17,15.858,15.764,16,15.794,15,15.273,15.128,15.5,16,15.753,15,15.836,16,15,15,14.601,15.095,16,16,14,14,14.593,15,15.273,15,13,13.526,14.544,15,15,13.884,13,13.422,14.012,14,13,13.13,13.887,14.706,14.929,14.087,13.153,13.22,13.733,14,14,12,12,12.616,13,13.188,13.164,13,13.302,13.538,13,12,12,12,12.689,13,12,11,11,11.749,12.631,13,12,11.917,12,12.653,13,11,10.862,11,11.298,11.494,11,10.878,11,10.992,10.774,10.479,10,10,10.489,11,11.067,11.019,11,11.001,11,11,10.428,10,9.9726,10,10,9.7787,10,10,10,10,9,9.4683,10,9,9,9,8,8.5668,9,9,9,8,8.2419,9,9,9,9,8,8,8.3685,8.0315,8,7.5207,6.9918,7,7.6383,8,7.7332,7,7,7,7.5327,8,8,7.7358,7,6.8654,7.4228,8,8,8.1567,8,7.2788,7.4493,8.0013,8.078,8,7,7,7.3424,8,8,8.1793,8,6.6473,6,6.4848,6.9513,7,6.0964,5.5481,5.6311,5.9071,6,6,5,5,5,5.228,6,6,6,6,6,6,6.4832,7,7,5,5,5,5.776,6,5,4.8928,5,5.0641,5.4099,6,6,5,5,5,4,3.8518,3.8973,4,4,4,4,4,3.9995,4,4,5,4,3.7232,3,3.3818,3.8827,3.9842,4,3.9958,3.8626,3,3,3,3.0131,3,2.6003,3,3.2087,3.2717,3,2.9509,3,2,2,2.2757,2.7829,2.8323,1.9995,2,1.8851,2,2.299,2.7592,3.0456,3,1,1,1,2,2.4462,3,3,1,0.8,1,1,1.5803,2,1.921,2,1,0.86943,1,1.9535,2.5685,2,1,1,1,1.0378,1,1,1,1,1,1,1,0,0.0953,0.74865,1,1.3626,1,0,0,0,-0.00013747,0,5.6174e-06,0,0,0,-2,-1.3758,0,0.11729,0,-1,-1,-1,-1,-0.92463,-1,-1.0038,-1,-1,-0.75,-2,-2,-1.6443,-1.1958,-1,-1,-1.265,-2,-2.0199,-1,-1,-1,-1,-2,-1,-1,-1.8257,-2,-2,-1,-1,-2,-2.0001,-2,-1.9975,-2,-2.0501,-2,-1,-2,-3,-3,-2,-1.9835,-2,-2,-2,-3,-3,-3,-3,-2.1917,-2,-4,-3,-3,-3,-4,-3,-2,-4,-4,-3,-3,-3,-3,-3.3402,-4,-4,-3,-4,-4,-4,-3.0512,-2.6233,-2.4913,-2.505,-2.6042,-2.7638,-2.9706,-3.2162,-3.4941,-3.7988,-4.1256,-4.4704,-4.8298,-5.2005,-5.58,-5.9661,-6.3569,-6.7508,-7.1467,-7.5436,-7.9405,-8.3368,-8.7321,-9.1259,-9.5179,-9.9079,-10.296,-10.681,-11.064,-11.445,-11.824,-12.199,-12.573,-12.944,-13.312,-13.678,-14.042,-14.403,-14.762,-15.119,-15.474,-15.826,-16.176,-16.524,-16.87,-17.214,-17.556,-17.895,-18.233,-18.568,-18.902,-19.233,-19.562,-19.89,-20.215,-20.538,-20.859,-21.178,-21.495,-21.81,-22.123,-22.434,-22.743,-23.049,-23.354,-23.657,-23.957,-24.255,-24.551,-24.845,-25.137,-25.427,-25.715,-26,-26.283,-26.564,-26.842,-27.119,-27.393,-27.665,-27.934,-28.201,-28.466,-28.728,-28.988,-29.246,-29.501,-29.754,-30.004,-30.252,-30.497,-30.739,-30.979,-31.216,-31.451,-31.683,-31.912,-32.138,-32.361,-32.582,-32.799,-33.014,-33.225,-33.433,-33.638
