40.377,39.688,39.831,39.507,39,39,39.295,39.491,39.902,40.248,40,40,39.632,39.639,39.814,40,38,38,38.181,38.174,38,38.166,38.115,37.866,37.777,37.735,37.679,38.222,38,37.567,37.286,37.115,37,38,37.119,37.022,37,37.009,37,36.641,36.405,36.197,36,36.433,36,35,35.136,35.543,35.823,35.735,35.708,36,35.779,35.71,35.819,36.251,36,36,34.874,34.758,35,35.155,34,34,34,34.298,34.217,34.012,34,35,33,33,33,33.504,34.16,35,33,34,33.446,33.799,34.01,34,33,33,32.858,32.474,32.38,32.613,33,34,32,32,31.793,32,33,32.448,32,32,32.263,33,32,31.698,31.689,31.873,32,31.859,32.05,32,32,31.581,31,30.776,30.785,31,32.007,32,31,30.485,30,30.155,31,30.792,31,30.849,31,30,31,30.373,30,30,30,30,29.689,29.711,30,30,30,30,29.738,29.316,29.133,28.99,29,29.457,30,30,29.132,29,28.996,29,29,28.567,28,27.879,28,28.152,28.564,29,29,28.644,29,28,28,28,28,27.889,27,27,27,27,26.739,27,27.578,27.962,27.736,27.636,27.51,27.382,27,27,27,27,27.752,26.996,27,26.498,26,26,26,26,26,27,26.007,25.402,25,26.106,27,26,26,26.2,27,27,26.414,26,25.833,25.544,25.683,26,26,25,26,26,26,25.138,25,25.018,25.01,25,24,25,25,24,24.044,24,24.465,24,24,23.652,24,24,24,23,24,24.245,24,24.249,24,24,24,24,23.881,23,22.903,23,23.126,23,23,23,23.382,23,23,22,22,22.601,22.557,23.144,23,22.354,22,21.901,21.995,22,21.965,22,23,22.577,22,21.468,21,20.972,21,21.082,21,21,21.092,21,21.114,21.272,21.267,21,20.373,20.165,20.15,20.134,20.162,20.186,20.214,20.163,19.75,19.448,19.701,19.973,20.14,20.219,20.095,19.676,19.226,18.982,19.056,19.201,19.29,19.363,19.407,19.364,19.291,19.255,19.29,19.416,19.415,19.244,18.986,18.732,18.537,18.412,18.342,18.301,18.254,18.227,18.193,18.104,17.932,17.691,17.448,17.268,17.16,17.102,17.065,17.023,16.964,16.908,16.859,16.806,16.736,16.641,16.522,16.387,16.249,16.125,16.019,15.931,15.858,15.8,15.762,15.75,15.768,15.805,15.845,15.874,15.878,15.85,15.784,15.69,15.583,15.478,15.383,15.303,15.234,15.175,15.121,15.07,15.022,14.979,14.95,14.942,14.965,15.017,15.086,15.152,15.197,15.207,15.184,15.137,15.085,15.042,15.015,15.003,14.999,14.99,14.969,14.93,14.876,14.817,14.763,14.724,14.704,14.698,14.701,14.701,14.69,14.663,14.617,14.554,14.478,14.394,14.305,14.213,14.116,14.007,13.883,13.74,13.579,13.406,13.23,13.059,12.901,12.76,12.636,12.53,12.441,12.367,12.309,12.265,12.235,12.217,12.208,12.205,12.203,12.196,12.18,12.151,12.108,12.051,11.984,11.91,11.835,11.763,11.699,11.644,11.601,11.569,11.547,11.532,11.522,11.515,11.505,11.491,11.469,11.439,11.402,11.357,11.308,11.259,11.213,11.173,11.142,11.119,11.107,11.102,11.105,11.111,11.12,11.128,11.133,11.133,11.129,11.118,11.1,11.076,11.046,11.01,10.969,10.923,10.876,10.83,10.787,10.749,10.719,10.695,10.678,10.665,10.654,10.642,10.626,10.605,10.577,10.542,10.5,10.453,10.402,10.348,10.294,10.238,10.182,10.125,10.069,10.013,9.9588,9.9078,9.8613,9.8205,9.7859,9.7575,9.7344,9.7154,9.6994,9.6852,9.6722,9.6599,9.6482,9.6366,9.6246,9.6111,9.595,9.575,9.5499,9.5191,9.4828,9.442,9.3985,9.3545,9.3124,9.2742,9.2413,9.214,9.192,9.1738,9.1577,9.1418,9.1241,9.1028,9.0767,9.0448,9.0062,8.9604,8.907,8.8452,8.7746,8.6949,8.6059,8.5079,8.4017
40.752,40,39.8,39.768,39.778,40,39.887,39.897,40.043,40.171,40.102,40,39.848,39.533,39,39.239,39,39,38.859,38.857,39,38.812,38.572,38,37.896,38,38.079,38.233,38.109,37.872,37.631,37.506,37.578,38,37,37.448,38,37.476,37,37,36.897,36.904,37,36.578,37,37,36.029,35.91,36,36.111,35.993,36,36,36.238,36.458,36.293,36,36,35,35.151,36,35.348,35.068,34.82,34.759,35,34.703,34.519,34.715,35.355,35,34.101,34,33.924,34,34.618,34,34,33,34,34.266,34.305,34,34,33.615,33,32.611,32.632,32.893,33.216,32,33,32,32,32.744,32.864,33,33,32,32.567,32.255,32,32,32.244,32.417,31.912,31.997,32.046,32.1,32,31,31,31.304,32,32.187,32,31,31,30.329,30,30.785,30.61,31,31,31.455,31,31,30,30,30.06,30,30,29.919,29.934,30,29.932,30,30,29.589,29,28.975,29,29.216,29.623,30,30,29,29,29,29,29.143,29,28,28,28,28.001,28.608,29,28.603,28,28.347,28,29,28,28,28,27,27.031,27,28,27,27.317,27.655,27.978,28.375,28.175,27.998,28,28,28,28,28,27.951,27.271,27.167,27.037,27,26,26,26,26,26.543,26,26,25.787,26.581,27,27,27,26,26,26.172,26,26,26,26,25.446,25,25,26,26,26.517,27,25,25,25,25,25.099,25,25,25,25,25,25,24.636,24,24,24,23.976,24,25,24,24,24.019,24,24.029,24,25,24,24,24,23,23,23,23,22.871,23,24,23.713,23,23.281,23,22.755,23,22.885,23,23,22,21.94,22,22.029,22.045,22.107,22.308,22.863,22.66,22.154,21.654,21.262,21.139,21.137,21.211,21.243,21.309,21.308,21.253,21.318,21.385,21.319,21.07,20.675,20.445,20.357,20.327,20.339,20.356,20.356,20.266,20.013,19.828,19.903,20.059,20.182,20.221,20.113,19.842,19.539,19.346,19.322,19.379,19.441,19.493,19.513,19.481,19.426,19.388,19.39,19.417,19.382,19.251,19.057,18.851,18.673,18.539,18.445,18.375,18.315,18.261,18.195,18.09,17.934,17.738,17.539,17.374,17.255,17.173,17.111,17.053,16.992,16.931,16.87,16.804,16.725,16.631,16.52,16.399,16.278,16.164,16.064,15.979,15.909,15.856,15.82,15.806,15.812,15.832,15.854,15.868,15.865,15.837,15.783,15.708,15.622,15.533,15.45,15.375,15.31,15.252,15.202,15.156,15.117,15.086,15.068,15.068,15.089,15.13,15.181,15.231,15.266,15.279,15.27,15.243,15.21,15.179,15.156,15.14,15.128,15.113,15.09,15.056,15.013,14.966,14.923,14.888,14.864,14.849,14.84,14.828,14.808,14.776,14.729,14.669,14.597,14.517,14.429,14.335,14.233,14.122,13.997,13.859,13.707,13.547,13.385,13.227,13.078,12.942,12.821,12.715,12.624,12.549,12.487,12.438,12.402,12.376,12.359,12.346,12.334,12.319,12.297,12.266,12.225,12.174,12.115,12.051,11.986,11.923,11.866,11.816,11.775,11.742,11.718,11.7,11.686,11.673,11.66,11.643,11.622,11.594,11.561,11.523,11.482,11.441,11.402,11.368,11.341,11.321,11.308,11.302,11.302,11.305,11.31,11.315,11.318,11.317,11.312,11.301,11.286,11.264,11.238,11.206,11.17,11.132,11.091,11.052,11.014,10.981,10.953,10.93,10.911,10.895,10.88,10.865,10.846,10.824,10.796,10.763,10.724,10.68,10.633,10.584,10.532,10.48,10.427,10.374,10.322,10.27,10.22,10.173,10.13,10.091,10.058,10.029,10.006,9.9853,9.9679,9.9524,9.9382,9.9248,9.9117,9.8985,9.8846,9.8692,9.8513,9.83,9.8046,9.7748,9.7407,9.7032,9.6636,9.6234,9.5844,9.548,9.5151,9.4861,9.4606,9.4377,9.4161,9.3942,9.3705,9.3436,9.3123,9.2755,9.2325,9.1827,9.1254,9.0603,8.987,8.9051,8.8148,8.7164,8.6104
41,40,39.789,40.092,40.302,40,40,40,39.988,39.974,40,39.995,40.147,40.077,40,39,39,39.114,39.098,39.06,39,39.053,39,38,38.081,38,38.321,38.188,38,38,37.876,37.82,37.854,37.916,37.593,37.877,38,37.554,37,36.848,37,37.091,37,36,37,37,36,36.348,37,36.75,36.134,35.9,36,36.585,37,36.258,36,36,35.289,35,35.43,35,36,35.46,35.116,35,34.833,34.758,35,35.226,34.882,34,34,34.415,35,34.825,34,34.034,34,34,34.157,34.209,34.181,34.237,34,33,32.653,32.716,33,33.332,33,33,33,33,32.534,32.708,33,33,33,33,32.585,32,32.005,32.437,33,32,32,31.947,32,32.638,33,31,31.372,32,32,32,31.472,31.249,30.886,30.779,31,30,30.504,31,32,31.818,31.298,30,30,30.024,30,30,30.019,30,30,29.823,30,31,30,29.403,29.337,29.468,29.584,29.797,30.093,30.567,31,30,29.391,29,29,29,28.6,28,29,28,28.963,30,29,28.799,28.821,28.752,29.208,29,29,28,29,28.183,27.784,28.094,27.781,28,27.873,28,29,28.38,28.076,28.019,28.107,28.084,28,28,28,27,26.977,27,27.175,27,27,26,27,26.507,26.094,25.948,26,27,27.108,27,27,27,27,26.285,26,25.686,26,27,26,26,26,26,25.849,26,25.98,25,26,25,25,25,25,24.942,25,24.845,25,26,25,24,24,24,24,24.155,24.844,25,24.215,24,24.065,24,24.135,24.828,25,24.243,24,23.452,23,22.943,22.831,22.793,23,23.86,24.057,24,24.067,24,23.41,23,22.907,22.851,22.639,22,21.925,22,22.069,22.139,22.254,22.452,22.71,22.604,22.254,21.861,21.546,21.392,21.358,21.397,21.445,21.495,21.496,21.471,21.485,21.482,21.389,21.184,20.914,20.711,20.596,20.542,20.525,20.516,20.486,20.396,20.239,20.12,20.124,20.193,20.255,20.26,20.17,19.987,19.781,19.629,19.57,19.572,19.597,19.619,19.619,19.59,19.544,19.502,19.476,19.452,19.392,19.277,19.12,18.948,18.788,18.654,18.545,18.457,18.379,18.302,18.215,18.101,17.956,17.788,17.618,17.467,17.344,17.247,17.168,17.098,17.029,16.96,16.89,16.816,16.732,16.638,16.534,16.424,16.314,16.21,16.116,16.035,15.969,15.917,15.881,15.863,15.859,15.866,15.874,15.877,15.867,15.84,15.794,15.733,15.662,15.587,15.515,15.448,15.387,15.334,15.288,15.248,15.216,15.193,15.182,15.186,15.205,15.238,15.277,15.315,15.344,15.358,15.357,15.343,15.323,15.301,15.282,15.266,15.251,15.233,15.209,15.179,15.143,15.105,15.068,15.036,15.01,14.989,14.971,14.951,14.924,14.887,14.839,14.78,14.71,14.632,14.545,14.451,14.348,14.236,14.113,13.98,13.837,13.688,13.537,13.39,13.249,13.119,13.002,12.897,12.806,12.729,12.664,12.612,12.57,12.537,12.512,12.491,12.471,12.45,12.424,12.391,12.351,12.304,12.251,12.195,12.138,12.082,12.031,11.985,11.946,11.914,11.889,11.868,11.851,11.835,11.82,11.801,11.78,11.754,11.725,11.692,11.657,11.623,11.59,11.562,11.538,11.52,11.508,11.501,11.499,11.499,11.502,11.504,11.505,11.503,11.498,11.488,11.474,11.455,11.432,11.404,11.373,11.34,11.306,11.271,11.239,11.209,11.183,11.16,11.141,11.123,11.106,11.088,11.068,11.045,11.018,10.986,10.949,10.909,10.865,10.819,10.771,10.723,10.673,10.624,10.575,10.527,10.48,10.437,10.396,10.36,10.328,10.299,10.275,10.254,10.235,10.219,10.203,10.189,10.174,10.159,10.144,10.127,10.108,10.085,10.06,10.031,9.9983,9.9631,9.9262,9.8886,9.8516,9.8161,9.7829,9.7522,9.7237,9.6967,9.6703,9.6432,9.6141,9.582,9.5457,9.5042,9.4569,9.4032,9.3424,9.2742,9.1982,9.1144,9.0228,8.9237,8.8176
41,40,40,40.62,41,40.178,40,40,39.956,39.832,40,40,40.437,40.107,39.772,39.061,39,39.081,39.188,39.214,39,39,39.03,40,39.358,39,39,38.24,38,38,38.017,38,38,37.973,38.096,38.576,39,38,37,36.63,37,37.078,37,37,37,36.604,36,36.55,37,37,36,35.76,36,36.712,37.037,36,36,35.843,35.761,36,36.014,36,36,35.317,35.085,35,34.888,34.775,35,35.048,34.78,34.204,34.054,34.458,35,35,34,34.032,34,34,34.097,34,34,34.091,34,33.262,32.849,33.085,34,33.834,33.136,32.985,33,33,32,32.496,33,32.975,33,34,33.201,32,31.857,32.146,33,34,32,32,32.044,32.235,32.154,31,31.81,33,32,32,31.881,31.55,31.377,31.46,31.404,30.749,30.757,31,31.562,32,32,30.786,30,30,30,31,30.337,30,31,30,30,30.562,30,29.769,29.777,30,29.935,29.957,30,30.158,30.432,30.064,29.669,29.207,29,30,30,29,28.8,28,29,29.95,30,30,29.646,29.35,29.254,29,29.137,29,29,28.28,28,28.068,28,27.982,28.018,28.501,29,28,28,27.845,28,27.957,28,27.998,28,27,27,27,27.32,28,28,27,27,26,26,25.837,26,26.652,26.953,27,27.477,28,28,27,28,26,26,26.75,27,27,26,27,26,26,25.447,25.048,25.664,26,25.59,25,25.078,25,25.081,25,26,25.618,25,24.425,24,23.96,23.863,23.862,24,24.262,24,25,24.542,24,23.896,24,24.264,24,25,24.509,24,23.422,23,23.015,23.3,23.892,24.246,24.399,24.443,24.295,23.804,23.331,23.064,22.853,22.575,22.19,22.069,22.094,22.162,22.25,22.369,22.516,22.634,22.562,22.33,22.046,21.801,21.654,21.597,21.603,21.633,21.661,21.663,21.646,21.628,21.587,21.486,21.32,21.12,20.948,20.829,20.756,20.713,20.678,20.63,20.549,20.441,20.355,20.328,20.343,20.357,20.337,20.258,20.127,19.979,19.858,19.787,19.758,19.751,19.746,19.73,19.697,19.651,19.603,19.557,19.505,19.43,19.321,19.184,19.035,18.889,18.756,18.641,18.539,18.446,18.353,18.251,18.133,17.995,17.844,17.692,17.55,17.427,17.323,17.233,17.151,17.074,16.998,16.921,16.84,16.754,16.661,16.561,16.459,16.357,16.261,16.174,16.097,16.033,15.982,15.946,15.922,15.911,15.907,15.905,15.899,15.884,15.857,15.817,15.765,15.705,15.642,15.58,15.521,15.467,15.419,15.378,15.344,15.317,15.3,15.293,15.299,15.315,15.341,15.372,15.403,15.427,15.442,15.445,15.44,15.428,15.413,15.398,15.383,15.367,15.348,15.326,15.299,15.268,15.235,15.202,15.172,15.144,15.12,15.095,15.069,15.036,14.996,14.947,14.888,14.819,14.742,14.656,14.562,14.46,14.35,14.23,14.102,13.967,13.828,13.687,13.548,13.416,13.292,13.178,13.076,12.986,12.907,12.84,12.784,12.738,12.7,12.668,12.64,12.614,12.588,12.558,12.524,12.485,12.441,12.393,12.342,12.291,12.242,12.195,12.153,12.116,12.085,12.059,12.037,12.018,12,11.983,11.964,11.943,11.919,11.893,11.864,11.835,11.805,11.778,11.753,11.733,11.717,11.705,11.698,11.695,11.694,11.694,11.695,11.694,11.692,11.686,11.677,11.664,11.648,11.627,11.604,11.577,11.548,11.519,11.489,11.461,11.434,11.41,11.388,11.368,11.35,11.331,11.312,11.292,11.268,11.241,11.21,11.176,11.138,11.098,11.055,11.01,10.965,10.919,10.873,10.827,10.783,10.74,10.699,10.661,10.626,10.595,10.568,10.543,10.521,10.502,10.484,10.467,10.451,10.436,10.419,10.403,10.384,10.364,10.341,10.315,10.287,10.255,10.222,10.186,10.15,10.115,10.079,10.046,10.013,9.982,9.9515,9.9208,9.889,9.8551,9.8182,9.7772,9.7313,9.68,9.6224,9.5582,9.4871,9.4087,9.323,9.23,9.1301,9.0236
41,42,41.454,41.327,41,40,40.067,40.287,40.325,40,40,40.458,41,40,39.582,39,38.811,39,39.325,39.714,40,39,38,39.182,39.313,39,39,38,38,38.254,38.332,38,38,38,38.292,38.699,39.045,39,39,37,37,37.2,37.177,37,37,36.621,36.664,37.362,38,37,36,35.844,36,37.04,38,37.352,37,36,36.018,36.249,36.236,36,36,35,35,35.105,35.217,35,35,35,35,34.478,34,34.325,34.854,35,34.712,34.751,35,35,34.638,34,34,34,34,33.495,33,33,33.886,34,33,33.164,33.581,34,33.204,33.066,33,33,33,34,33.806,33,32.202,32,33.068,34,32.849,32.504,32.297,32,31.697,31,31.683,32.406,32,33,32.626,31.837,31.666,32,32,31.538,31.268,31,30.761,31,32,31.38,30.36,30,31,30,30.099,30,30.488,30,31,31,31,30.322,30,30,30.067,30.319,31,30,29.81,29.913,30,29.83,30,30,30,29,29,29,29.136,29.725,30,30,30.017,29.704,29.375,29,29,29,28.598,28,28,28,28,27.837,28,29.08,30,28,29,28,28,27.816,28,28,28.537,29,27,28,27,27,27.5,28,28,26,26,26,27,26.631,27,27.289,27.758,28,28,28,28,27,26,26,26,26.533,27,27,26,26,25,24.808,25,25.726,26,26,25.889,26,25.953,26,25.781,25,26,25.499,25,24.435,24,23.873,23.903,24.088,24.231,24.793,24.593,24.179,23.969,23.96,24.151,24.329,24.957,24.839,24.44,23.918,23.527,23.471,23.68,24.071,24.391,24.57,24.594,24.426,24.042,23.618,23.279,22.99,22.701,22.424,22.288,22.267,22.308,22.381,22.476,22.572,22.624,22.568,22.411,22.209,22.024,21.896,21.829,21.811,21.817,21.825,21.819,21.797,21.763,21.703,21.604,21.465,21.307,21.161,21.046,20.962,20.9,20.847,20.787,20.712,20.627,20.556,20.515,20.496,20.479,20.441,20.368,20.266,20.151,20.051,19.977,19.931,19.901,19.875,19.844,19.802,19.752,19.697,19.637,19.569,19.484,19.377,19.252,19.116,18.98,18.85,18.731,18.621,18.516,18.411,18.3,18.179,18.046,17.905,17.764,17.63,17.508,17.399,17.301,17.212,17.127,17.044,16.961,16.877,16.788,16.696,16.6,16.504,16.409,16.319,16.236,16.163,16.101,16.051,16.012,15.985,15.967,15.954,15.944,15.932,15.913,15.886,15.85,15.805,15.754,15.7,15.646,15.595,15.547,15.505,15.469,15.44,15.418,15.405,15.401,15.407,15.421,15.442,15.467,15.492,15.513,15.527,15.534,15.533,15.527,15.517,15.505,15.492,15.477,15.459,15.438,15.414,15.386,15.356,15.327,15.297,15.269,15.242,15.213,15.182,15.146,15.103,15.052,14.993,14.924,14.848,14.764,14.671,14.571,14.463,14.348,14.225,14.097,13.966,13.834,13.704,13.579,13.46,13.351,13.251,13.162,13.083,13.014,12.956,12.905,12.863,12.826,12.793,12.762,12.731,12.699,12.663,12.625,12.583,12.539,12.493,12.447,12.402,12.359,12.32,12.286,12.255,12.229,12.206,12.186,12.167,12.149,12.13,12.109,12.087,12.064,12.039,12.013,11.988,11.965,11.944,11.926,11.912,11.902,11.895,11.89,11.888,11.888,11.887,11.885,11.882,11.877,11.869,11.857,11.843,11.825,11.804,11.782,11.757,11.731,11.706,11.681,11.657,11.634,11.613,11.594,11.575,11.556,11.537,11.515,11.492,11.465,11.436,11.404,11.368,11.331,11.291,11.25,11.208,11.165,11.122,11.08,11.038,10.998,10.96,10.924,10.891,10.861,10.834,10.809,10.787,10.767,10.748,10.73,10.713,10.696,10.679,10.661,10.641,10.62,10.596,10.57,10.542,10.511,10.479,10.444,10.409,10.374,10.339,10.304,10.27,10.236,10.202,10.168,10.132,10.094,10.052,10.007,9.9571,9.9018,9.8407,9.7734,9.6994,9.6187,9.5311,9.4367,9.3358,9.2287
41.016,41.721,41.775,41.921,42,41.09,40.739,41,41.478,42,41,40.748,40.612,40.1,39.972,39.741,39,39.059,39.341,39.637,39.628,39,40,39.54,39.705,40,39.494,38.825,39,39.091,39.538,40,39,38.58,38.567,38.583,38.583,38.879,39.12,38.113,38,37.876,37.885,38,38,37,37.301,37.837,38.24,38,38,36.763,36,37.06,38.025,37.854,37.184,36.613,36.467,36.609,36.781,37,37,35.958,35,35.52,36.329,37,36,35,36,35.053,34,34.352,35.018,35.454,35.437,35.217,35.233,35.439,35.729,36,35,34.444,34,34.028,34,34,34.14,34,33.843,33.711,33.907,34.174,34,33.958,34,33,33,33.852,34,33,32.61,32.64,33.211,33.585,33.062,33,32.947,33,32.239,31.594,31.965,32.624,33,33,33,32,31.611,31.873,32.046,32,31.981,32,31,32,32.28,32,31,30.964,32,31,31.293,32,31.233,31,31.178,31,31,30.406,30,30.092,30,30,30.961,31,30,30.057,30,30,30,29.883,30,29,29,29,29,29.605,30,30.178,30.475,30,29.684,29.352,29,29,28.692,29.007,29,28,29,28,28,29.065,29.875,29.239,29.322,28.923,29,28,28.127,28,28,27.627,27,28,27,28,27,27,27.077,26.218,26.01,26,27,26,26.698,27.396,28,28.084,28.018,28,27.875,27,26.271,26,25.919,26,26.75,27.025,27,26.234,25,25.427,26,25.607,25,25.6,26.005,26.286,26.353,26.307,26.01,25.661,26.111,25.912,25.466,24.897,24.418,24.173,24.117,24.217,24.39,24.655,24.583,24.344,24.179,24.164,24.318,24.563,24.92,24.929,24.682,24.319,24.029,23.948,24.066,24.309,24.538,24.673,24.672,24.513,24.207,23.843,23.502,23.195,22.915,22.68,22.538,22.485,22.492,22.535,22.595,22.65,22.668,22.62,22.508,22.363,22.223,22.114,22.046,22.012,21.998,21.988,21.971,21.941,21.896,21.829,21.734,21.615,21.483,21.356,21.246,21.157,21.084,21.018,20.951,20.879,20.804,20.738,20.688,20.649,20.611,20.561,20.492,20.404,20.309,20.22,20.147,20.09,20.044,20.002,19.958,19.908,19.851,19.788,19.718,19.64,19.549,19.442,19.323,19.195,19.065,18.939,18.817,18.701,18.588,18.475,18.359,18.235,18.106,17.971,17.837,17.708,17.587,17.476,17.373,17.278,17.187,17.099,17.011,16.923,16.834,16.742,16.65,16.557,16.467,16.382,16.303,16.233,16.173,16.122,16.082,16.05,16.027,16.008,15.992,15.974,15.953,15.926,15.892,15.852,15.808,15.762,15.715,15.67,15.629,15.592,15.561,15.536,15.518,15.508,15.506,15.511,15.523,15.541,15.562,15.583,15.601,15.614,15.622,15.625,15.622,15.616,15.607,15.596,15.582,15.565,15.546,15.524,15.499,15.472,15.444,15.415,15.386,15.357,15.325,15.291,15.252,15.207,15.155,15.095,15.027,14.952,14.869,14.779,14.681,14.577,14.465,14.348,14.227,14.103,13.979,13.856,13.737,13.625,13.519,13.422,13.335,13.256,13.186,13.126,13.072,13.026,12.985,12.948,12.913,12.879,12.844,12.808,12.77,12.73,12.689,12.646,12.604,12.563,12.524,12.487,12.455,12.425,12.399,12.376,12.356,12.336,12.318,12.299,12.279,12.259,12.237,12.216,12.194,12.172,12.152,12.134,12.119,12.106,12.097,12.09,12.086,12.083,12.082,12.08,12.078,12.075,12.07,12.062,12.052,12.039,12.024,12.006,11.987,11.966,11.944,11.921,11.899,11.877,11.857,11.837,11.818,11.8,11.781,11.761,11.74,11.717,11.691,11.663,11.633,11.6,11.565,11.528,11.489,11.45,11.41,11.371,11.331,11.293,11.255,11.219,11.186,11.154,11.125,11.098,11.074,11.051,11.031,11.011,10.992,10.974,10.956,10.938,10.918,10.897,10.875,10.851,10.825,10.797,10.766,10.734,10.7,10.666,10.63,10.595,10.559,10.523,10.487,10.45,10.412,10.372,10.33,10.285,10.236,10.182,10.123,10.058,9.988,9.9114,9.8284,9.7389,9.6431,9.5411,9.4333
40.739,41.169,41.413,41.785,42.039,41.649,41,41.061,41.544,42,41,40.727,40.157,40.015,40.479,41,40,39.537,39.561,39.756,39.767,39.612,40,39,39.54,40,39.564,39,39,39.191,39.778,40.11,39.403,39,39,38.606,38,38.342,39,38.381,38.187,38.19,38.226,38.159,38.093,37.77,38,38.121,38.22,38.192,38.087,37.371,37,37.468,38.142,38,37,37,36.799,36.88,36.963,37,37,37,36,36.202,36.812,37.183,36.538,36,36,35.5,34.605,34.774,35.426,36,36,35.29,35,35.278,35.82,36,35,35,35,34.724,34.248,34.222,34.563,35,35,34.154,34.008,34.081,34.076,34.236,34.34,34,34,34.154,34,33.443,33.239,33.38,33.531,33.507,33,33.041,33,33,32.565,32,32.288,32.78,33,32.911,33,34,32,32,32,32,32.085,32.148,32,32,32.044,32,31.35,31,31.436,31,31.558,32,31,31,31.222,31,30.798,31,32,30.966,30,30.232,31.156,32,32,31.15,30.748,30.804,31,30,30.173,29.642,29.647,30,30,30.027,30,30.175,31,30,30,30,29.842,30,29,30,29.459,29,28.815,28,29,29.3,30,30,29.401,29.096,29,29,29,28.895,29,27,27.193,28,28,28.249,28,27.434,27,26.661,26.608,27,27.191,27,27.124,27.564,28,28.071,28,28.091,28,27,26.831,27,26.876,27,27.042,27,27.307,27.2,27,26.696,26.564,26.02,25.526,25.783,26.155,26.445,26.562,26.527,26.341,26.177,26.277,26.125,25.762,25.288,24.855,24.574,24.454,24.471,24.566,24.68,24.65,24.525,24.429,24.433,24.555,24.753,24.964,25.001,24.864,24.637,24.441,24.365,24.419,24.556,24.695,24.771,24.744,24.597,24.343,24.033,23.719,23.424,23.162,22.947,22.801,22.723,22.699,22.71,22.735,22.757,22.753,22.708,22.623,22.515,22.406,22.315,22.248,22.204,22.175,22.151,22.123,22.084,22.032,21.962,21.873,21.766,21.651,21.538,21.434,21.343,21.264,21.19,21.119,21.046,20.975,20.909,20.852,20.801,20.75,20.692,20.622,20.542,20.457,20.375,20.301,20.237,20.181,20.127,20.072,20.013,19.949,19.878,19.801,19.716,19.62,19.514,19.397,19.274,19.149,19.024,18.901,18.781,18.663,18.545,18.425,18.3,18.172,18.042,17.912,17.786,17.666,17.554,17.448,17.348,17.253,17.16,17.069,16.979,16.889,16.798,16.707,16.618,16.532,16.45,16.375,16.307,16.247,16.196,16.154,16.12,16.092,16.068,16.047,16.025,16.002,15.974,15.942,15.907,15.868,15.827,15.787,15.748,15.712,15.68,15.653,15.632,15.617,15.609,15.608,15.613,15.623,15.638,15.656,15.673,15.689,15.702,15.711,15.715,15.714,15.711,15.704,15.694,15.682,15.667,15.649,15.629,15.606,15.581,15.554,15.526,15.497,15.466,15.433,15.396,15.355,15.308,15.255,15.195,15.128,15.054,14.973,14.885,14.79,14.689,14.583,14.471,14.356,14.239,14.121,14.005,13.893,13.785,13.684,13.59,13.504,13.426,13.356,13.294,13.239,13.19,13.145,13.105,13.067,13.031,12.994,12.958,12.92,12.881,12.842,12.802,12.763,12.725,12.688,12.655,12.624,12.595,12.57,12.547,12.527,12.507,12.488,12.47,12.452,12.433,12.414,12.394,12.375,12.357,12.339,12.324,12.311,12.3,12.292,12.285,12.281,12.278,12.276,12.274,12.272,12.269,12.264,12.257,12.249,12.238,12.225,12.209,12.193,12.174,12.155,12.136,12.116,12.097,12.078,12.06,12.042,12.023,12.005,11.985,11.965,11.942,11.918,11.891,11.863,11.832,11.799,11.765,11.729,11.693,11.656,11.619,11.582,11.546,11.511,11.478,11.446,11.416,11.388,11.361,11.337,11.314,11.293,11.273,11.254,11.234,11.215,11.196,11.175,11.153,11.13,11.106,11.079,11.051,11.02,10.988,10.955,10.92,10.884,10.848,10.811,10.773,10.735,10.695,10.654,10.611,10.565,10.516,10.463,10.406,10.343,10.276,10.202,10.123,10.038,9.9467,9.8494,9.7463,9.6376
41,41.095,41,41.431,41.907,42,41,40.779,41,41.3,41.007,41,40,39.754,40.361,41,40.515,40,40,40.188,40.179,40,40.002,39.583,39.832,40,39.525,39,38.893,39,39.723,40,39.264,39,40,39.286,38.4,38,38.502,38,38,38.312,38.435,38,37.924,38,38,38.135,38,38,37.821,37.461,37.229,37.459,38,37.46,36.854,37,37,37.179,37.117,36.922,36.899,37,36.619,36.663,36.941,37,36.388,36,36,36,35,35.16,35.696,36,36,35,34.786,35,35.716,36,35.099,35,35,35,34,33.997,34.512,35,35,34,34,34.023,34,34.336,34.601,34.736,35,34.589,34,33.833,33.731,34,33.932,34,33.979,33.491,33,33.065,33,32.658,32.791,33.192,33.383,33,33,33.167,32,33,32,32,32.035,31.913,32,33,32,32,31.736,31.423,31.541,31.53,31.816,32.045,31.781,32,31.976,32,31,32,32,31.353,31,30.682,30.927,31,31.668,31.195,30.971,31,31,31,31,30.135,29.896,29.964,30,30.514,31,30,30.976,30.09,30,30,30,30.228,30,30,29,29,28.97,29,29,29,29.848,30,29,29,28.989,29,29.041,29,29.379,29,28.191,28,28.014,28,28,28.076,28,27.409,27,27.084,27,27,27.269,27.647,27.978,28.106,28.125,28.16,28.024,27.527,27.429,27.549,27.548,27.589,27.559,27.559,27.772,27.853,27.79,27.483,27.124,26.624,26.239,26.263,26.466,26.667,26.769,26.756,26.65,26.541,26.49,26.323,26.017,25.631,25.262,24.986,24.829,24.779,24.797,24.828,24.804,24.74,24.693,24.71,24.803,24.942,25.073,25.109,25.037,24.902,24.776,24.713,24.727,24.791,24.859,24.883,24.832,24.692,24.474,24.208,23.928,23.658,23.415,23.213,23.065,22.97,22.92,22.901,22.897,22.892,22.872,22.827,22.756,22.671,22.582,22.503,22.438,22.389,22.35,22.314,22.276,22.23,22.172,22.101,22.016,21.919,21.815,21.711,21.612,21.522,21.438,21.361,21.285,21.212,21.14,21.073,21.01,20.95,20.891,20.827,20.756,20.679,20.599,20.52,20.445,20.376,20.311,20.248,20.185,20.118,20.046,19.97,19.886,19.796,19.697,19.59,19.475,19.355,19.231,19.107,18.984,18.862,18.741,18.619,18.497,18.371,18.244,18.117,17.99,17.866,17.747,17.633,17.525,17.422,17.324,17.228,17.135,17.043,16.951,16.861,16.772,16.685,16.602,16.523,16.45,16.384,16.324,16.273,16.229,16.192,16.16,16.133,16.108,16.083,16.058,16.03,16,15.967,15.932,15.896,15.861,15.827,15.796,15.768,15.745,15.727,15.715,15.708,15.707,15.712,15.721,15.734,15.749,15.764,15.778,15.79,15.798,15.803,15.805,15.803,15.798,15.79,15.779,15.765,15.749,15.73,15.708,15.684,15.659,15.631,15.602,15.57,15.535,15.497,15.455,15.407,15.354,15.294,15.228,15.155,15.076,14.99,14.899,14.801,14.699,14.593,14.484,14.373,14.262,14.152,14.045,13.943,13.845,13.755,13.671,13.594,13.524,13.461,13.404,13.353,13.306,13.264,13.224,13.185,13.148,13.11,13.073,13.036,12.998,12.96,12.923,12.888,12.854,12.822,12.793,12.766,12.741,12.719,12.699,12.679,12.661,12.644,12.626,12.609,12.591,12.574,12.558,12.542,12.527,12.514,12.503,12.493,12.486,12.48,12.476,12.474,12.471,12.47,12.467,12.464,12.46,12.454,12.447,12.437,12.426,12.413,12.399,12.384,12.367,12.35,12.333,12.316,12.298,12.281,12.264,12.247,12.229,12.21,12.19,12.169,12.145,12.12,12.093,12.065,12.034,12.002,11.969,11.936,11.901,11.867,11.833,11.799,11.766,11.735,11.704,11.676,11.649,11.623,11.599,11.576,11.555,11.534,11.514,11.494,11.474,11.453,11.432,11.409,11.385,11.36,11.333,11.304,11.273,11.241,11.207,11.172,11.136,11.099,11.06,11.021,10.98,10.938,10.894,10.848,10.798,10.746,10.689,10.629,10.563,10.493,10.417,10.335,10.248,10.155,10.056,9.9515,9.8418
43,42,41,41.228,41.645,41.911,41.753,41,40.946,40.919,40.753,41,42,40,40.281,41,40.92,40.748,41,40.946,40.837,40.533,40.347,40.22,40.371,40.351,39.679,39.266,39.197,39.465,40.018,40,39,39,39.842,39.691,39.263,39,39,38,38,38.631,39,37.918,37.733,38,39,38.707,38,38,37.666,37.468,37.118,37,37.449,37,36.573,37,38,37.835,37.497,37,36.793,37,36.894,36.854,36.883,36.616,36,36,36.007,36,35.551,35.598,36,36,37,35,35,35.295,35.863,36.07,35,35,35.146,35,34,34,34.592,35,35.156,34.927,34.509,34.417,34.486,34.619,34.752,34.857,35.036,35,35,34.504,33.847,33.77,33.851,34,35,34.113,33.591,33.34,33,33.048,33.153,33.627,34,33.224,33.342,32.959,32,32.808,33,33,32.511,32,32,32.122,32,32.272,32.286,31.825,31.863,32,32.031,32.193,32.179,32.146,32,32,31,32,31.446,31,31,31,31.483,32,32,31,30.928,30.991,31.001,31,31,30,30,29.881,30,30.519,31.084,31,32,30,30,29.914,30,30.322,30.493,30.019,29,29.047,29,29.014,29,30,30.274,30.037,29,29.044,29,28.95,29,29,29.221,29,28.422,28,28.218,28.564,29,28.865,28.592,28.057,27.601,27.418,27.284,27.298,27.506,27.796,28.056,28.208,28.276,28.298,28.211,28.003,27.955,28.023,28.063,28.091,28.091,28.126,28.253,28.324,28.261,28.005,27.644,27.227,26.907,26.816,26.874,26.97,27.025,27.01,26.934,26.834,26.723,26.541,26.274,25.953,25.638,25.382,25.208,25.113,25.074,25.056,25.026,24.987,24.965,24.985,25.051,25.144,25.226,25.254,25.217,25.138,25.056,25.005,24.994,25.011,25.027,25.011,24.94,24.805,24.612,24.38,24.132,23.888,23.664,23.474,23.325,23.218,23.148,23.104,23.076,23.05,23.016,22.968,22.905,22.831,22.755,22.684,22.621,22.568,22.521,22.477,22.43,22.378,22.317,22.245,22.163,22.072,21.975,21.878,21.783,21.694,21.609,21.528,21.45,21.375,21.302,21.231,21.164,21.098,21.032,20.964,20.891,20.815,20.736,20.658,20.582,20.508,20.437,20.367,20.296,20.222,20.144,20.062,19.974,19.879,19.778,19.669,19.555,19.436,19.314,19.191,19.067,18.944,18.821,18.697,18.573,18.447,18.321,18.195,18.07,17.947,17.829,17.715,17.605,17.5,17.399,17.301,17.206,17.113,17.021,16.931,16.843,16.758,16.677,16.6,16.529,16.463,16.405,16.353,16.307,16.268,16.233,16.203,16.175,16.148,16.121,16.093,16.063,16.033,16.001,15.969,15.938,15.908,15.881,15.857,15.837,15.821,15.811,15.806,15.805,15.809,15.817,15.828,15.841,15.854,15.866,15.877,15.885,15.891,15.893,15.892,15.888,15.882,15.872,15.86,15.845,15.827,15.806,15.784,15.759,15.731,15.702,15.67,15.634,15.595,15.552,15.504,15.451,15.391,15.326,15.255,15.178,15.095,15.007,14.913,14.815,14.714,14.61,14.505,14.4,14.296,14.194,14.097,14.003,13.916,13.834,13.758,13.689,13.626,13.568,13.516,13.468,13.423,13.382,13.342,13.304,13.266,13.229,13.192,13.156,13.12,13.086,13.052,13.02,12.99,12.962,12.937,12.913,12.892,12.872,12.853,12.835,12.819,12.802,12.786,12.771,12.756,12.741,12.728,12.715,12.704,12.694,12.686,12.68,12.675,12.672,12.669,12.667,12.665,12.663,12.661,12.657,12.652,12.646,12.638,12.629,12.618,12.606,12.593,12.579,12.564,12.549,12.534,12.518,12.502,12.486,12.47,12.453,12.435,12.416,12.396,12.374,12.35,12.325,12.298,12.27,12.24,12.21,12.178,12.147,12.115,12.083,12.051,12.021,11.991,11.962,11.934,11.908,11.883,11.859,11.837,11.815,11.794,11.773,11.752,11.731,11.71,11.687,11.664,11.64,11.613,11.586,11.556,11.525,11.493,11.459,11.423,11.386,11.347,11.308,11.266,11.224,11.179,11.132,11.083,11.03,10.975,10.915,10.851,10.783,10.71,10.631,10.547,10.458,10.363,10.263,10.157,10.046
42.947,42,41.761,41.532,41.633,42,43,42.126,41.536,41.131,41,42,42,40,40.364,41,41.134,40.917,41,41.313,41.439,40.954,40.666,40.711,40.941,41,40,39.709,39.624,40,40.682,41,39,40,40.165,40.059,40.02,40,39,38,38.369,39.104,40,38,38,38.478,39.283,39.656,40,39,38,37.931,37.289,37,38.086,39,37,37,37.814,38.015,38.048,38,37,37.214,37.122,36.973,37,36.699,36,36,36.056,36,35.946,35.844,36,37,36,35.786,35.598,35.752,36.243,37,36.17,35.825,35.845,36,36,35.129,35.4,36,35.6,36,35,34.853,35,34.905,34.87,34.764,34.798,34.955,35,35,34,33.677,34.189,35,35.03,34,34,33.964,34,33.69,33.249,33.646,34,33,34,33.642,33,32.891,33,33.198,33.106,33,33,32,33,32.947,33,32,32,32,32,32.351,32.469,32.161,32,32.139,32,32,31,31,31.204,32,31.929,32,32,31,31,31,30.99,30.947,30.74,30,31,30,29.886,30.348,31.259,32,31.378,30,30.142,30,30.058,30.339,31,30.561,30,29.922,30,29.408,29,30.004,30.676,31.003,31,29.931,29,28.931,29,29.065,29.156,29.02,28.693,28.472,28.649,28.998,29.329,29.278,29.01,28.575,28.161,27.891,27.73,27.713,27.839,28.04,28.239,28.385,28.472,28.51,28.484,28.417,28.412,28.462,28.511,28.549,28.575,28.618,28.688,28.715,28.636,28.42,28.111,27.772,27.497,27.353,27.316,27.325,27.325,27.289,27.212,27.105,26.969,26.783,26.542,26.267,25.994,25.758,25.579,25.458,25.382,25.333,25.292,25.259,25.244,25.258,25.301,25.36,25.41,25.429,25.408,25.359,25.302,25.258,25.232,25.217,25.198,25.153,25.067,24.935,24.76,24.554,24.332,24.112,23.907,23.728,23.579,23.464,23.379,23.316,23.268,23.225,23.18,23.127,23.066,22.998,22.929,22.862,22.8,22.743,22.691,22.64,22.587,22.529,22.465,22.393,22.312,22.225,22.134,22.041,21.949,21.86,21.775,21.693,21.613,21.535,21.46,21.386,21.315,21.244,21.174,21.101,21.026,20.949,20.87,20.791,20.713,20.636,20.559,20.483,20.406,20.326,20.243,20.155,20.063,19.965,19.861,19.752,19.637,19.519,19.398,19.275,19.151,19.027,18.902,18.778,18.652,18.527,18.401,18.276,18.152,18.031,17.912,17.798,17.688,17.582,17.479,17.379,17.283,17.188,17.097,17.007,16.92,16.836,16.757,16.681,16.611,16.546,16.487,16.435,16.388,16.346,16.31,16.277,16.246,16.217,16.189,16.161,16.132,16.103,16.074,16.045,16.017,15.99,15.966,15.945,15.928,15.915,15.906,15.901,15.901,15.905,15.912,15.921,15.932,15.943,15.954,15.964,15.972,15.977,15.98,15.98,15.977,15.971,15.962,15.951,15.937,15.92,15.901,15.879,15.855,15.828,15.798,15.766,15.73,15.691,15.647,15.599,15.546,15.487,15.423,15.354,15.279,15.199,15.114,15.024,14.931,14.835,14.736,14.636,14.537,14.438,14.341,14.248,14.159,14.074,13.994,13.921,13.852,13.789,13.731,13.678,13.629,13.583,13.541,13.5,13.461,13.424,13.387,13.351,13.316,13.282,13.249,13.217,13.187,13.159,13.133,13.108,13.086,13.065,13.046,13.028,13.011,12.995,12.98,12.966,12.952,12.938,12.926,12.914,12.903,12.894,12.886,12.879,12.874,12.87,12.867,12.865,12.863,12.862,12.861,12.858,12.856,12.852,12.847,12.84,12.833,12.824,12.814,12.802,12.79,12.778,12.765,12.751,12.737,12.723,12.708,12.693,12.677,12.66,12.642,12.623,12.602,12.58,12.557,12.532,12.506,12.478,12.45,12.421,12.391,12.362,12.332,12.303,12.274,12.246,12.218,12.192,12.167,12.142,12.119,12.096,12.074,12.053,12.031,12.01,11.988,11.966,11.943,11.919,11.893,11.867,11.838,11.808,11.777,11.743,11.709,11.672,11.634,11.594,11.553,11.51,11.465,11.418,11.369,11.317,11.262,11.203,11.141,11.074,11.003,10.927,10.846,10.76,10.668,10.572,10.47,10.363,10.251
43.165,43,43,42.003,41.823,42,42.828,42.447,42,41.585,41.535,42.007,41.865,41,41.286,42,41.659,40.959,40.956,41.526,42,41.1,40.718,40.922,41.186,41.301,41,40.458,39.927,40.116,40.626,40.814,40,40,40.063,40,40.108,40,39,40,39.279,39,40.02,40,39.029,39,39.263,39.496,39.816,39.402,39,39,37.705,37,38.039,38.772,38,38,37.984,38,38.067,38,37.664,38,37.513,37.038,37.252,37.64,38,37,36.751,37,36.73,36.405,37,37,36,37,36.158,36,36,36.751,36.677,36.395,36.194,36,35.738,35,35.484,36,35,36,35.178,35,35,35,35.191,35,34.689,35,35.243,35.681,36,34,34.374,35,35,34,33.755,34,34,34,33,33.494,33.997,34,34,34,33.513,33,33,33.392,33.601,33.802,34,33.298,33.385,33,33,32.252,32,32,32,32.699,33,32.143,32,32.242,32,33,32.373,32,31,31,31.673,32.348,33,33,31,30.883,31,31.151,31.481,32,31.423,30,29.81,30,30.807,31.3,31,32,31.511,31,30.367,30,30.61,30.679,30.523,30.459,30.383,29.987,29.803,30.389,31.004,31.383,31.339,30.514,29.669,29.345,29.265,29.265,29.275,29.19,29.032,28.956,29.093,29.347,29.557,29.541,29.333,29,28.656,28.388,28.221,28.171,28.232,28.36,28.506,28.631,28.721,28.776,28.795,28.797,28.822,28.872,28.924,28.969,29.005,29.042,29.075,29.065,28.975,28.79,28.534,28.256,28.014,27.848,27.754,27.7,27.653,27.588,27.497,27.378,27.229,27.044,26.823,26.579,26.337,26.119,25.941,25.806,25.708,25.638,25.586,25.549,25.53,25.533,25.556,25.589,25.616,25.625,25.609,25.573,25.529,25.487,25.45,25.415,25.371,25.306,25.211,25.081,24.918,24.732,24.532,24.333,24.143,23.973,23.827,23.707,23.61,23.534,23.47,23.413,23.357,23.299,23.237,23.171,23.104,23.039,22.976,22.917,22.86,22.804,22.746,22.684,22.617,22.543,22.464,22.379,22.291,22.201,22.112,22.023,21.938,21.854,21.772,21.693,21.615,21.539,21.463,21.389,21.314,21.239,21.161,21.082,21.002,20.921,20.84,20.759,20.679,20.598,20.515,20.43,20.342,20.25,20.154,20.053,19.947,19.837,19.722,19.603,19.482,19.359,19.235,19.111,18.986,18.861,18.735,18.61,18.484,18.36,18.237,18.116,17.998,17.884,17.773,17.666,17.562,17.461,17.364,17.269,17.177,17.088,17.001,16.919,16.84,16.765,16.696,16.631,16.573,16.519,16.471,16.428,16.39,16.355,16.322,16.292,16.263,16.234,16.206,16.178,16.15,16.124,16.098,16.074,16.053,16.034,16.019,16.008,16,15.996,15.996,15.999,16.005,16.013,16.022,16.032,16.042,16.051,16.058,16.063,16.065,16.066,16.063,16.058,16.05,16.04,16.027,16.011,15.992,15.971,15.947,15.921,15.891,15.859,15.823,15.784,15.74,15.692,15.64,15.582,15.52,15.452,15.38,15.302,15.221,15.135,15.046,14.954,14.86,14.766,14.671,14.577,14.486,14.396,14.311,14.229,14.152,14.08,14.013,13.951,13.893,13.84,13.79,13.744,13.701,13.66,13.621,13.583,13.547,13.512,13.478,13.445,13.414,13.384,13.355,13.328,13.303,13.28,13.259,13.239,13.22,13.204,13.188,13.173,13.159,13.146,13.133,13.122,13.111,13.101,13.092,13.084,13.077,13.072,13.068,13.065,13.063,13.061,13.06,13.059,13.058,13.057,13.055,13.052,13.048,13.043,13.037,13.03,13.022,13.012,13.002,12.992,12.98,12.968,12.956,12.943,12.93,12.916,12.901,12.885,12.869,12.851,12.832,12.811,12.789,12.766,12.742,12.717,12.69,12.664,12.636,12.609,12.581,12.553,12.526,12.5,12.474,12.448,12.424,12.4,12.377,12.354,12.332,12.31,12.289,12.267,12.244,12.222,12.198,12.173,12.147,12.119,12.09,12.06,12.027,11.993,11.958,11.92,11.881,11.84,11.797,11.753,11.706,11.657,11.605,11.55,11.492,11.431,11.366,11.297,11.223,11.144,11.061,10.973,10.879,10.781,10.678,10.569,10.456
43.093,43,43,42,42.375,43,43.074,42.39,42,41.798,41.805,42,41.936,41.652,41.759,42,42,41,40.762,41.375,42,41,40.59,41,41.232,41.278,41,41,40,40,40.371,40.533,40.118,40,40,40,40.084,40.105,40,40,39.429,39,39.637,39.813,39,39,39.102,39,39.307,39.234,39.128,39,38,38,38.353,38.627,38,38,38,38,38.065,37.955,38,39,37.896,37,37.358,37.83,38.054,37.461,37,37,37,36,36.497,36.845,37,37,36,36.201,36.36,36.829,37,36.746,36.456,36.137,35.639,35,35.531,36.078,36,36,35,35,34.978,35,36.137,37,35,35,35,35,34.905,34,34.929,36,35,34,33.452,34,35,34,33.801,33.86,34,34,33.85,34.056,34,33.782,34,33.916,33.927,34.028,34.115,34,34,33.89,34,32.484,32,31.78,32,33.249,34,32,32.202,33,33,32.915,33,32.629,32,31.522,31.833,32.452,33,33.123,32,31.332,31,31.13,31.34,31.823,31.613,31,30.484,30.427,30.842,31.239,31.471,32.166,31.994,31.501,30.887,30.519,30.721,30.851,30.858,30.832,30.749,30.559,30.527,30.868,31.288,31.544,31.449,30.897,30.263,29.87,29.678,29.593,29.546,29.481,29.409,29.399,29.502,29.666,29.789,29.775,29.621,29.371,29.098,28.865,28.706,28.637,28.653,28.728,28.83,28.93,29.015,29.08,29.125,29.161,29.204,29.256,29.309,29.355,29.392,29.418,29.425,29.392,29.298,29.136,28.922,28.688,28.473,28.3,28.174,28.078,27.992,27.9,27.79,27.659,27.503,27.321,27.113,26.892,26.673,26.47,26.295,26.154,26.043,25.958,25.895,25.849,25.822,25.812,25.817,25.829,25.838,25.836,25.818,25.787,25.746,25.702,25.657,25.607,25.547,25.469,25.367,25.239,25.086,24.915,24.733,24.549,24.373,24.212,24.068,23.945,23.841,23.754,23.678,23.61,23.546,23.481,23.416,23.35,23.283,23.217,23.153,23.091,23.03,22.969,22.906,22.841,22.771,22.696,22.617,22.534,22.447,22.359,22.271,22.184,22.097,22.012,21.929,21.848,21.767,21.688,21.61,21.532,21.454,21.375,21.295,21.214,21.131,21.048,20.965,20.881,20.796,20.711,20.624,20.534,20.442,20.346,20.247,20.143,20.035,19.924,19.808,19.69,19.569,19.446,19.322,19.197,19.071,18.946,18.82,18.695,18.57,18.446,18.324,18.204,18.086,17.972,17.861,17.753,17.648,17.547,17.449,17.354,17.262,17.173,17.087,17.005,16.926,16.853,16.783,16.719,16.66,16.606,16.557,16.513,16.473,16.436,16.402,16.37,16.34,16.311,16.283,16.256,16.23,16.205,16.181,16.16,16.14,16.124,16.11,16.1,16.093,16.089,16.089,16.091,16.096,16.103,16.111,16.12,16.129,16.136,16.143,16.147,16.15,16.15,16.148,16.143,16.136,16.126,16.114,16.099,16.081,16.06,16.037,16.011,15.982,15.949,15.914,15.875,15.832,15.784,15.732,15.676,15.615,15.55,15.48,15.405,15.327,15.245,15.16,15.073,14.984,14.894,14.804,14.715,14.628,14.542,14.46,14.382,14.308,14.238,14.172,14.111,14.053,14,13.951,13.904,13.861,13.82,13.781,13.744,13.708,13.674,13.641,13.61,13.58,13.551,13.524,13.498,13.475,13.452,13.432,13.413,13.396,13.38,13.365,13.352,13.339,13.327,13.316,13.306,13.297,13.288,13.281,13.275,13.269,13.265,13.262,13.26,13.259,13.258,13.258,13.257,13.257,13.256,13.255,13.253,13.251,13.247,13.242,13.237,13.23,13.223,13.215,13.206,13.196,13.186,13.175,13.164,13.152,13.139,13.125,13.111,13.096,13.079,13.061,13.042,13.022,13.001,12.979,12.955,12.931,12.906,12.881,12.855,12.829,12.804,12.778,12.753,12.728,12.704,12.68,12.657,12.634,12.612,12.59,12.568,12.546,12.523,12.5,12.477,12.452,12.427,12.4,12.372,12.342,12.31,12.277,12.242,12.206,12.167,12.127,12.085,12.04,11.994,11.945,11.894,11.84,11.783,11.723,11.659,11.591,11.519,11.443,11.362,11.277,11.187,11.091,10.991,10.886,10.776,10.662
43,43,43.104,43.006,43.102,43,43,42,41.892,41.95,42,42,42.113,42.108,42.143,42.271,42.575,43,41,41.216,42,43,41,41,41.378,41.611,41.767,42,40.804,40,40.348,40.523,40,39.933,40,40,40.025,39.963,40,39.981,39.585,39,39.554,40,39.816,40,39.681,39.467,39.275,39,38.917,38.772,38.196,38,38.51,39,38.684,38.553,38.731,39,38.48,38,38,38.421,38,37.899,37.855,37.96,38,37.849,37.777,38,37.233,36,36.307,36.566,37,37.254,37.139,37,36.843,37.025,37,36.934,36.709,36.538,36.144,35.783,36.015,36.445,36.785,37,36.227,36,35.612,35.687,36.466,36.857,35.69,35.336,35,35,34.297,34.497,35.266,36,36,36,34,35,35.4,35,35,34.42,34,35,34,34.222,34,33.96,34.083,34.019,34,34,33.893,33.976,34,34,34,32,31.838,32,33,33.55,33.454,32,32.332,32.715,32.488,32,33,32.675,32,31.792,32,32.513,32.958,33,32,31.883,32,31.433,31,31.404,31.503,31.286,30.988,30.92,31.141,31.461,31.79,32.191,32.155,31.818,31.374,31.078,31.077,31.142,31.176,31.175,31.133,31.067,31.099,31.304,31.554,31.686,31.577,31.199,30.737,30.371,30.136,29.996,29.91,29.847,29.806,29.814,29.883,29.98,30.046,30.024,29.906,29.718,29.506,29.313,29.171,29.095,29.084,29.122,29.19,29.268,29.342,29.408,29.464,29.515,29.567,29.621,29.672,29.715,29.746,29.76,29.751,29.705,29.611,29.466,29.282,29.081,28.886,28.714,28.57,28.448,28.334,28.219,28.092,27.95,27.789,27.609,27.412,27.207,27.004,26.813,26.643,26.499,26.38,26.285,26.211,26.156,26.118,26.094,26.083,26.077,26.071,26.058,26.034,26.001,25.959,25.911,25.858,25.798,25.727,25.64,25.534,25.408,25.262,25.102,24.934,24.764,24.599,24.445,24.304,24.179,24.07,23.975,23.89,23.813,23.741,23.671,23.602,23.533,23.464,23.396,23.33,23.265,23.2,23.135,23.069,23,22.927,22.851,22.772,22.689,22.603,22.516,22.429,22.341,22.254,22.169,22.084,22,21.918,21.836,21.755,21.674,21.593,21.511,21.428,21.344,21.259,21.174,21.087,21,20.912,20.823,20.732,20.638,20.542,20.443,20.341,20.235,20.126,20.013,19.896,19.777,19.656,19.533,19.409,19.284,19.159,19.033,18.908,18.783,18.658,18.535,18.413,18.294,18.176,18.062,17.951,17.843,17.738,17.636,17.537,17.442,17.35,17.261,17.175,17.094,17.016,16.943,16.874,16.81,16.75,16.696,16.646,16.6,16.558,16.52,16.485,16.452,16.421,16.392,16.364,16.338,16.312,16.289,16.266,16.246,16.229,16.213,16.201,16.192,16.185,16.182,16.181,16.183,16.187,16.193,16.2,16.207,16.215,16.221,16.227,16.231,16.233,16.234,16.232,16.227,16.22,16.211,16.199,16.184,16.167,16.147,16.124,16.098,16.07,16.038,16.003,15.964,15.921,15.875,15.824,15.769,15.71,15.647,15.579,15.508,15.433,15.354,15.273,15.19,15.106,15.02,14.935,14.851,14.767,14.686,14.608,14.533,14.461,14.393,14.329,14.269,14.213,14.16,14.111,14.065,14.021,13.981,13.942,13.905,13.87,13.837,13.805,13.775,13.746,13.719,13.693,13.669,13.646,13.625,13.606,13.589,13.572,13.558,13.544,13.531,13.52,13.509,13.5,13.491,13.483,13.476,13.47,13.465,13.461,13.458,13.456,13.455,13.455,13.455,13.455,13.456,13.456,13.456,13.456,13.455,13.454,13.452,13.448,13.444,13.439,13.434,13.427,13.42,13.412,13.403,13.394,13.384,13.373,13.362,13.35,13.337,13.323,13.308,13.291,13.274,13.256,13.236,13.215,13.194,13.172,13.149,13.125,13.101,13.077,13.053,13.029,13.005,12.982,12.959,12.936,12.913,12.891,12.868,12.846,12.824,12.802,12.779,12.755,12.731,12.706,12.68,12.652,12.623,12.593,12.561,12.527,12.491,12.453,12.414,12.372,12.329,12.283,12.235,12.184,12.131,12.075,12.015,11.953,11.887,11.816,11.742,11.664,11.581,11.493,11.401,11.304,11.202,11.096,10.984,10.868
42.84,43,43.267,44,44.172,44,42,42,42.154,42.396,42.543,42.495,42.533,42.559,42.425,42.224,42,42.377,41,41.312,42,42.717,42,42,41.901,41.938,42.027,42.076,41.512,40.908,40.928,41,40,40.116,40.347,40.371,40.284,40,40,40.282,40.351,40,39.929,40,40.181,40.24,40,40,39.497,39,39,38.96,38.615,38.406,38.709,39,39.191,38.889,39,39,38.662,38,38,38.264,39,39,38.315,38.123,38,38.116,38.039,38.18,38,38,37.322,37,38,37.691,38,37,37,37.507,38,37.413,36.961,37,36.749,36.529,36.507,36.683,37,37.099,36.664,36,35.827,36,36.575,36.793,36,36,36,36,34,35,35.449,35.871,36,36.064,35,35,35,34,34.776,34.881,35,35,35,35,34.263,33.978,34,33.995,34.184,34.286,34,34.112,34,34,33.859,33,32.727,33,33.601,33.964,34,34,33.415,33,32.623,32.344,32.757,32.635,32.268,32.136,32.277,32.605,32.874,32.842,32.363,32.229,32.164,31.72,31.35,31.444,31.531,31.477,31.362,31.35,31.501,31.749,32.025,32.267,32.274,32.071,31.783,31.562,31.493,31.5,31.52,31.528,31.519,31.511,31.559,31.682,31.816,31.864,31.753,31.48,31.137,30.825,30.589,30.427,30.319,30.248,30.211,30.213,30.251,30.301,30.327,30.297,30.202,30.058,29.892,29.737,29.614,29.539,29.513,29.527,29.57,29.628,29.691,29.752,29.81,29.866,29.919,29.971,30.017,30.054,30.077,30.082,30.061,30.008,29.915,29.784,29.622,29.444,29.265,29.097,28.944,28.805,28.673,28.54,28.4,28.249,28.084,27.906,27.717,27.523,27.332,27.15,26.985,26.84,26.717,26.614,26.531,26.466,26.416,26.38,26.353,26.332,26.312,26.288,26.257,26.218,26.172,26.119,26.059,25.991,25.911,25.818,25.71,25.585,25.446,25.295,25.137,24.978,24.821,24.673,24.535,24.41,24.297,24.196,24.105,24.021,23.942,23.866,23.792,23.72,23.648,23.578,23.509,23.44,23.372,23.303,23.233,23.161,23.086,23.009,22.928,22.845,22.76,22.673,22.585,22.497,22.41,22.323,22.237,22.151,22.066,21.982,21.898,21.814,21.73,21.645,21.56,21.473,21.386,21.297,21.208,21.118,21.027,20.934,20.839,20.743,20.644,20.542,20.437,20.329,20.218,20.103,19.986,19.867,19.746,19.623,19.498,19.374,19.248,19.123,18.997,18.873,18.749,18.626,18.504,18.385,18.268,18.154,18.043,17.935,17.829,17.728,17.629,17.533,17.441,17.352,17.267,17.186,17.108,17.035,16.966,16.902,16.842,16.787,16.736,16.689,16.647,16.607,16.571,16.537,16.505,16.476,16.448,16.422,16.397,16.374,16.353,16.334,16.317,16.303,16.292,16.283,16.277,16.273,16.272,16.274,16.277,16.282,16.287,16.294,16.3,16.306,16.311,16.314,16.316,16.316,16.314,16.31,16.303,16.294,16.282,16.268,16.251,16.232,16.209,16.184,16.156,16.125,16.09,16.052,16.01,15.965,15.915,15.862,15.804,15.743,15.678,15.61,15.538,15.463,15.386,15.307,15.227,15.146,15.065,14.984,14.905,14.828,14.753,14.681,14.612,14.546,14.484,14.425,14.37,14.319,14.27,14.225,14.182,14.142,14.103,14.067,14.033,14.001,13.97,13.941,13.913,13.887,13.863,13.84,13.819,13.799,13.781,13.764,13.749,13.736,13.723,13.712,13.701,13.692,13.684,13.676,13.67,13.665,13.66,13.656,13.654,13.652,13.651,13.651,13.651,13.652,13.653,13.655,13.656,13.657,13.658,13.658,13.658,13.657,13.655,13.652,13.649,13.645,13.64,13.634,13.628,13.621,13.613,13.605,13.595,13.586,13.575,13.563,13.55,13.537,13.522,13.506,13.489,13.471,13.453,13.433,13.412,13.391,13.37,13.347,13.325,13.303,13.28,13.257,13.235,13.213,13.19,13.168,13.146,13.124,13.102,13.08,13.057,13.034,13.01,12.985,12.96,12.933,12.905,12.875,12.844,12.811,12.776,12.739,12.701,12.66,12.617,12.572,12.525,12.475,12.423,12.367,12.309,12.248,12.183,12.115,12.042,11.966,11.885,11.8,11.711,11.617,11.518,11.414,11.306,11.193,11.076
43,42.996,43,43.898,44.455,44.605,44,43,42.824,43.092,43.293,43.02,42.936,43,42.795,42.641,42.667,43,42.16,42.131,42.459,42.52,42,42,42.008,42.042,42,41.99,42,41.566,41.306,41,40.868,40.811,41,41,41.077,41.077,40.682,40.796,41,40,40.391,41,40.753,40.458,40.089,40,39.796,39.731,40,39.666,39.297,39,39.32,39.748,40,39,38.873,39,39.509,40,39,38,38.547,38.309,38,38.416,39,38.708,38.066,38.109,38.158,38.271,38.027,38,38,37,37.462,36.99,37,37.533,38,37.47,37,36.829,37,37,36.836,36.728,36.901,37,37,36.354,36,36,36.644,37,36,35.949,36,36,35,35,35.266,35.661,35.954,36,35,35.086,35,34.563,35,34.878,34.916,34.908,35,34.825,34,33.777,33.833,34,34.665,35.415,36,35.004,34,33.972,33.929,33.632,33.536,33.758,34.145,34.437,34.563,34.563,34.075,33.536,33.09,32.822,32.863,32.765,32.571,32.489,32.567,32.748,32.887,32.85,32.62,32.468,32.311,32.001,31.736,31.693,31.718,31.714,31.693,31.727,31.851,32.041,32.247,32.404,32.425,32.312,32.134,31.979,31.9,31.878,31.881,31.888,31.894,31.909,31.95,32.021,32.081,32.078,31.971,31.762,31.498,31.24,31.023,30.858,30.74,30.662,30.617,30.604,30.615,30.631,30.63,30.593,30.513,30.399,30.268,30.142,30.038,29.968,29.935,29.934,29.959,30.001,30.052,30.106,30.16,30.212,30.263,30.31,30.349,30.379,30.393,30.389,30.36,30.303,30.213,30.092,29.946,29.784,29.618,29.454,29.298,29.15,29.005,28.86,28.71,28.552,28.385,28.209,28.026,27.841,27.658,27.483,27.322,27.177,27.051,26.942,26.852,26.777,26.716,26.667,26.627,26.593,26.56,26.524,26.485,26.439,26.387,26.328,26.261,26.186,26.101,26.004,25.893,25.77,25.635,25.491,25.342,25.19,25.041,24.898,24.763,24.638,24.523,24.417,24.32,24.23,24.146,24.065,23.986,23.91,23.835,23.761,23.689,23.617,23.545,23.472,23.399,23.324,23.247,23.167,23.086,23.002,22.916,22.829,22.74,22.652,22.564,22.475,22.388,22.3,22.213,22.126,22.04,21.953,21.866,21.779,21.691,21.601,21.511,21.42,21.328,21.235,21.141,21.045,20.947,20.848,20.746,20.641,20.534,20.424,20.311,20.196,20.078,19.958,19.837,19.713,19.589,19.464,19.339,19.214,19.089,18.964,18.841,18.718,18.597,18.479,18.362,18.248,18.137,18.029,17.924,17.821,17.723,17.627,17.535,17.446,17.361,17.28,17.203,17.13,17.061,16.996,16.936,16.88,16.829,16.781,16.737,16.696,16.659,16.624,16.592,16.562,16.534,16.508,16.484,16.461,16.441,16.423,16.407,16.393,16.382,16.374,16.368,16.364,16.363,16.363,16.366,16.37,16.374,16.379,16.385,16.389,16.394,16.396,16.398,16.397,16.395,16.391,16.384,16.376,16.364,16.35,16.334,16.315,16.293,16.268,16.241,16.21,16.176,16.138,16.098,16.053,16.005,15.953,15.898,15.839,15.777,15.711,15.642,15.571,15.498,15.423,15.347,15.27,15.193,15.117,15.041,14.968,14.896,14.827,14.761,14.697,14.637,14.58,14.527,14.476,14.428,14.384,14.342,14.302,14.265,14.23,14.196,14.165,14.135,14.107,14.081,14.056,14.033,14.011,13.991,13.973,13.956,13.941,13.927,13.914,13.903,13.893,13.883,13.875,13.868,13.862,13.857,13.853,13.85,13.848,13.846,13.846,13.846,13.847,13.848,13.85,13.852,13.854,13.857,13.859,13.86,13.862,13.863,13.863,13.862,13.861,13.859,13.857,13.853,13.849,13.844,13.839,13.832,13.825,13.818,13.809,13.8,13.789,13.778,13.766,13.753,13.738,13.723,13.707,13.69,13.672,13.653,13.634,13.614,13.593,13.572,13.551,13.53,13.509,13.487,13.466,13.445,13.423,13.401,13.38,13.358,13.335,13.312,13.289,13.265,13.239,13.213,13.186,13.157,13.126,13.094,13.06,13.025,12.987,12.947,12.906,12.862,12.815,12.767,12.715,12.661,12.604,12.544,12.481,12.414,12.343,12.269,12.19,12.108,12.021,11.929,11.833,11.733,11.628,11.518,11.404,11.285
45,44,43.673,43.981,44.349,44.445,44,43,43.181,43.685,44,43.233,43,43,42.943,42.918,43,43.11,42.82,42.825,43,42.576,41.966,41.841,42,42.228,42,41.736,42,41.896,41.871,42,42,41.297,41.199,41.293,41.602,42,41,40.85,41,40.667,40.814,41,41,40.639,40,39.947,39.918,40,40,40,40,39.856,40.052,40.379,40.46,39.583,39,39.01,39.606,40,39.429,39,39,38,38,38.409,38.918,39,38,38,38,38.094,38.05,38,38,38,38,37.08,37,37.4,37.84,38,39,37,37,37.067,37.167,37,37,36.81,36.803,36.429,36.058,36.043,36.679,37,36.423,36,35.922,35.766,35,34.877,35,35.419,35.799,35.937,35.645,35.833,36,34.861,34,34.289,34.638,35,36,35.147,34,33.833,34,34.388,35.092,35.822,36.186,35.518,34.704,34.42,34.31,34.199,34.204,34.376,34.636,34.85,34.945,34.872,34.503,34.028,33.601,33.307,33.173,33.043,32.908,32.84,32.865,32.945,33.002,32.963,32.827,32.683,32.514,32.289,32.096,32.014,32,32.004,32.021,32.075,32.183,32.329,32.479,32.59,32.617,32.559,32.453,32.349,32.282,32.251,32.244,32.248,32.257,32.274,32.302,32.336,32.353,32.321,32.219,32.05,31.841,31.627,31.435,31.278,31.159,31.074,31.02,30.991,30.979,30.971,30.951,30.908,30.837,30.744,30.638,30.535,30.447,30.384,30.347,30.338,30.35,30.379,30.418,30.463,30.51,30.556,30.6,30.64,30.672,30.693,30.699,30.687,30.652,30.592,30.505,30.392,30.257,30.108,29.951,29.792,29.636,29.482,29.33,29.177,29.021,28.859,28.691,28.516,28.338,28.158,27.982,27.812,27.654,27.51,27.381,27.268,27.17,27.087,27.016,26.956,26.904,26.857,26.812,26.766,26.717,26.664,26.605,26.539,26.467,26.386,26.295,26.195,26.084,25.962,25.83,25.692,25.548,25.403,25.26,25.121,24.988,24.863,24.746,24.638,24.536,24.442,24.352,24.266,24.183,24.103,24.024,23.947,23.87,23.795,23.719,23.643,23.567,23.489,23.409,23.328,23.244,23.159,23.072,22.984,22.895,22.806,22.716,22.627,22.537,22.448,22.359,22.27,22.181,22.091,22.002,21.912,21.821,21.729,21.636,21.543,21.448,21.352,21.255,21.156,21.055,20.953,20.848,20.742,20.632,20.521,20.407,20.29,20.172,20.051,19.929,19.806,19.682,19.557,19.432,19.307,19.182,19.058,18.934,18.812,18.692,18.574,18.458,18.344,18.233,18.125,18.019,17.917,17.819,17.723,17.631,17.542,17.457,17.376,17.299,17.226,17.157,17.092,17.032,16.975,16.923,16.874,16.829,16.788,16.75,16.714,16.681,16.651,16.622,16.596,16.572,16.55,16.53,16.512,16.497,16.483,16.473,16.464,16.458,16.454,16.452,16.452,16.454,16.457,16.46,16.465,16.469,16.473,16.476,16.478,16.479,16.478,16.476,16.471,16.465,16.456,16.445,16.431,16.415,16.397,16.375,16.351,16.324,16.294,16.261,16.224,16.184,16.141,16.095,16.045,15.991,15.935,15.875,15.812,15.747,15.679,15.609,15.538,15.465,15.392,15.32,15.247,15.176,15.105,15.037,14.971,14.907,14.847,14.789,14.734,14.681,14.632,14.586,14.542,14.501,14.463,14.426,14.392,14.36,14.329,14.301,14.274,14.248,14.225,14.203,14.183,14.164,14.147,14.131,14.117,14.104,14.093,14.083,14.074,14.066,14.059,14.054,14.049,14.045,14.042,14.04,14.039,14.039,14.04,14.041,14.043,14.045,14.048,14.051,14.054,14.058,14.061,14.064,14.066,14.068,14.069,14.07,14.07,14.07,14.069,14.067,14.064,14.061,14.057,14.052,14.047,14.04,14.033,14.025,14.016,14.006,13.996,13.984,13.971,13.958,13.943,13.927,13.911,13.894,13.876,13.858,13.839,13.82,13.8,13.78,13.76,13.739,13.719,13.698,13.677,13.656,13.634,13.613,13.59,13.567,13.543,13.519,13.493,13.466,13.438,13.409,13.377,13.345,13.31,13.273,13.235,13.194,13.151,13.106,13.058,13.008,12.955,12.9,12.841,12.779,12.714,12.645,12.572,12.496,12.416,12.331,12.242,12.149,12.051,11.949,11.842,11.731,11.615,11.495
45,44,44,43.988,44.147,44.168,43.941,43.46,43.597,44.015,44,43,42.941,43,43.026,43,43,43.06,43.028,43.047,43,42.571,41.811,41.665,42,43.101,44,42,42,41.951,41.975,42,42,41,41,41.085,41.134,41,41,40.836,41.369,41.391,41.489,41.73,42,41.249,40,40,39.998,40.249,41,40,40.342,40.427,40.572,40.818,41,40.128,39.331,39,39.591,40,39.274,39,40,39.248,38.594,38.49,38.665,39,40,38,38,37.951,37.966,37.914,37.843,38,39,37,37,37.421,38.057,39,39,37,37,37.157,38.028,39,38,37,36.945,36.646,36.151,36,37.009,38,37.057,36,36.032,36,35.403,35.07,35,35.363,35.755,36,36.005,36.083,35.956,35.107,34.369,34.401,34.731,35.186,35.729,35.252,34.513,34.288,34.43,34.825,35.409,35.958,36.176,35.82,35.293,34.977,34.823,34.754,34.779,34.902,35.071,35.206,35.244,35.135,34.841,34.452,34.072,33.771,33.565,33.403,33.273,33.195,33.176,33.19,33.192,33.144,33.041,32.912,32.761,32.59,32.443,32.358,32.327,32.328,32.356,32.413,32.504,32.617,32.73,32.812,32.842,32.817,32.757,32.691,32.641,32.612,32.601,32.6,32.606,32.617,32.631,32.641,32.631,32.584,32.488,32.347,32.175,31.996,31.829,31.684,31.568,31.479,31.416,31.373,31.344,31.318,31.286,31.238,31.173,31.093,31.005,30.919,30.844,30.787,30.751,30.735,30.739,30.757,30.785,30.821,30.859,30.897,30.933,30.964,30.988,31,30.998,30.979,30.939,30.877,30.792,30.685,30.559,30.418,30.269,30.115,29.96,29.805,29.649,29.491,29.331,29.166,28.997,28.825,28.65,28.475,28.303,28.138,27.983,27.839,27.708,27.59,27.487,27.395,27.315,27.245,27.182,27.124,27.068,27.012,26.954,26.893,26.826,26.754,26.676,26.59,26.495,26.392,26.28,26.159,26.03,25.895,25.757,25.617,25.478,25.342,25.211,25.086,24.968,24.857,24.752,24.653,24.559,24.469,24.382,24.297,24.215,24.134,24.054,23.974,23.895,23.816,23.736,23.655,23.573,23.489,23.404,23.317,23.229,23.14,23.05,22.959,22.868,22.777,22.686,22.595,22.503,22.412,22.32,22.229,22.136,22.044,21.95,21.856,21.761,21.664,21.567,21.468,21.368,21.267,21.164,21.059,20.952,20.843,20.732,20.619,20.503,20.386,20.267,20.146,20.023,19.9,19.775,19.651,19.526,19.401,19.276,19.153,19.03,18.908,18.788,18.67,18.555,18.441,18.33,18.222,18.117,18.015,17.916,17.821,17.729,17.64,17.556,17.474,17.397,17.324,17.255,17.19,17.129,17.071,17.018,16.969,16.923,16.881,16.842,16.805,16.772,16.741,16.712,16.686,16.662,16.64,16.62,16.602,16.587,16.574,16.563,16.554,16.548,16.544,16.541,16.541,16.541,16.543,16.546,16.549,16.552,16.555,16.558,16.559,16.559,16.558,16.555,16.551,16.544,16.535,16.524,16.511,16.495,16.477,16.456,16.433,16.406,16.377,16.344,16.309,16.27,16.229,16.184,16.135,16.084,16.03,15.973,15.913,15.85,15.786,15.719,15.652,15.583,15.514,15.445,15.376,15.308,15.242,15.177,15.113,15.053,14.994,14.938,14.885,14.835,14.787,14.743,14.7,14.66,14.623,14.587,14.554,14.523,14.494,14.466,14.441,14.417,14.394,14.374,14.355,14.337,14.321,14.307,14.294,14.282,14.272,14.263,14.256,14.249,14.244,14.239,14.236,14.233,14.232,14.231,14.231,14.232,14.234,14.236,14.239,14.243,14.247,14.251,14.255,14.259,14.263,14.267,14.271,14.274,14.277,14.279,14.28,14.281,14.281,14.281,14.28,14.278,14.275,14.272,14.268,14.263,14.257,14.251,14.243,14.235,14.226,14.216,14.204,14.192,14.179,14.165,14.151,14.135,14.119,14.102,14.085,14.067,14.048,14.03,14.01,13.991,13.971,13.951,13.931,13.91,13.889,13.867,13.845,13.822,13.798,13.773,13.747,13.719,13.691,13.66,13.629,13.595,13.56,13.522,13.483,13.441,13.397,13.351,13.302,13.25,13.196,13.138,13.078,13.014,12.947,12.877,12.802,12.724,12.642,12.555,12.465,12.37,12.27,12.166,12.058,11.945,11.828,11.707
45,44.428,44,44,44.078,44,44,43.787,43.937,44.553,45,43.993,43.486,43.379,43.341,43,43,43,43.11,43.204,43.257,43,42,41.78,41.959,43.044,43.824,43,42,41.978,42.037,42,41.748,41,41,41.143,41.183,41,42,41,42,41.958,41.918,42.027,42.255,42,40.717,40,40.104,40,40.616,40.633,41,40.863,40.833,40.811,40.871,40.357,39.753,39.46,39.671,39.665,39,39,39.992,40,39,38.777,39,40,40.032,38.584,38,38,38.092,38,37.814,37.998,38.254,37,37.296,37.662,38,38.913,38.971,38,37.316,37,37.824,38.383,37.941,38,37.677,37.275,36.518,36,36.934,37.767,37.504,37,36.618,36.314,35.838,35.49,35.378,35.569,35.852,36.071,36.15,36.143,35.921,35.36,34.861,34.781,34.985,35.308,35.567,35.352,34.966,34.81,34.923,35.244,35.681,36.068,36.221,36.052,35.739,35.487,35.338,35.275,35.288,35.363,35.46,35.528,35.517,35.394,35.148,34.827,34.497,34.207,33.978,33.796,33.655,33.559,33.503,33.471,33.436,33.375,33.283,33.169,33.038,32.903,32.786,32.709,32.674,32.672,32.697,32.749,32.824,32.912,32.997,33.062,33.093,33.087,33.056,33.017,32.982,32.959,32.947,32.943,32.944,32.948,32.949,32.942,32.916,32.861,32.772,32.65,32.506,32.354,32.207,32.076,31.964,31.875,31.805,31.752,31.71,31.671,31.629,31.579,31.517,31.446,31.371,31.298,31.232,31.181,31.145,31.126,31.123,31.132,31.151,31.177,31.205,31.235,31.262,31.284,31.299,31.303,31.293,31.267,31.224,31.16,31.076,30.973,30.853,30.719,30.576,30.427,30.274,30.118,29.961,29.801,29.639,29.473,29.304,29.133,28.961,28.79,28.622,28.46,28.307,28.163,28.03,27.909,27.8,27.702,27.614,27.534,27.461,27.392,27.327,27.261,27.195,27.125,27.052,26.973,26.889,26.798,26.7,26.594,26.481,26.361,26.234,26.102,25.967,25.831,25.695,25.562,25.432,25.308,25.189,25.076,24.968,24.865,24.767,24.673,24.582,24.493,24.407,24.322,24.238,24.155,24.073,23.99,23.907,23.823,23.738,23.652,23.565,23.476,23.386,23.296,23.204,23.112,23.02,22.927,22.834,22.74,22.647,22.553,22.459,22.365,22.271,22.175,22.079,21.982,21.884,21.786,21.686,21.585,21.482,21.378,21.273,21.166,21.057,20.946,20.833,20.718,20.601,20.483,20.363,20.241,20.119,19.995,19.871,19.746,19.621,19.497,19.372,19.249,19.127,19.005,18.886,18.768,18.653,18.54,18.429,18.321,18.216,18.115,18.016,17.921,17.829,17.74,17.655,17.574,17.497,17.423,17.354,17.288,17.227,17.169,17.115,17.065,17.019,16.976,16.936,16.898,16.864,16.833,16.803,16.777,16.752,16.73,16.71,16.693,16.677,16.664,16.653,16.644,16.638,16.633,16.63,16.628,16.628,16.629,16.631,16.633,16.635,16.637,16.639,16.639,16.639,16.637,16.634,16.629,16.623,16.614,16.603,16.59,16.575,16.557,16.536,16.513,16.488,16.459,16.428,16.393,16.356,16.316,16.272,16.226,16.177,16.125,16.07,16.013,15.953,15.892,15.829,15.765,15.7,15.635,15.569,15.504,15.439,15.376,15.314,15.254,15.196,15.14,15.087,15.036,14.987,14.941,14.898,14.857,14.819,14.782,14.748,14.716,14.686,14.658,14.632,14.607,14.585,14.564,14.544,14.526,14.51,14.496,14.483,14.471,14.461,14.452,14.444,14.438,14.432,14.428,14.425,14.423,14.422,14.421,14.422,14.423,14.425,14.428,14.432,14.436,14.44,14.445,14.45,14.456,14.461,14.466,14.471,14.476,14.48,14.484,14.488,14.491,14.493,14.495,14.496,14.496,14.495,14.494,14.492,14.49,14.486,14.482,14.477,14.471,14.464,14.456,14.448,14.438,14.427,14.416,14.403,14.39,14.376,14.362,14.346,14.33,14.314,14.296,14.279,14.261,14.242,14.223,14.204,14.184,14.164,14.143,14.121,14.099,14.076,14.052,14.026,14,13.972,13.943,13.912,13.88,13.846,13.809,13.771,13.731,13.688,13.643,13.595,13.545,13.492,13.436,13.378,13.316,13.25,13.182,13.109,13.033,12.953,12.869,12.781,12.689,12.592,12.491,12.386,12.276,12.161,12.043,11.92
45.366,45.184,44.889,45,44.476,44,44,43.976,44,44.584,44.916,44.406,43.9,43.944,44.432,45,44,43,43.296,43.371,43.661,44,44,42.638,42,42.886,43.468,43.056,42.566,42.386,42.318,42.213,42.304,43,42,41.892,42.329,43,42.657,41.851,42,42.01,41.987,41.906,42.01,41.993,41.406,41.116,41.518,42,40.857,41,41,40.943,41.116,41,40.994,40.615,40.146,39.89,40,40.09,40.033,40,40.189,40,39,39.247,40,40.29,39.926,39,38.714,39,38.67,38.33,38,38.311,38.727,39,38.703,38.725,39,39.218,39,38,37.839,38,37.893,37.622,37,37.618,37.948,38,37.301,36.857,37.244,37.713,37.701,37.423,37.056,36.686,36.279,35.965,35.828,35.892,36.052,36.196,36.254,36.204,35.995,35.627,35.301,35.198,35.293,35.477,35.605,35.524,35.352,35.285,35.386,35.631,35.946,36.219,36.341,36.274,36.1,35.927,35.806,35.746,35.741,35.775,35.817,35.833,35.787,35.658,35.444,35.173,34.885,34.617,34.387,34.196,34.044,33.928,33.845,33.781,33.719,33.646,33.556,33.452,33.339,33.228,33.133,33.065,33.03,33.024,33.044,33.086,33.146,33.215,33.281,33.333,33.363,33.369,33.356,33.334,33.312,33.294,33.283,33.277,33.273,33.269,33.261,33.242,33.207,33.149,33.066,32.959,32.835,32.703,32.574,32.455,32.35,32.261,32.187,32.127,32.076,32.028,31.979,31.926,31.867,31.802,31.736,31.671,31.613,31.566,31.531,31.509,31.5,31.502,31.513,31.529,31.549,31.569,31.587,31.6,31.606,31.602,31.585,31.553,31.506,31.44,31.357,31.257,31.141,31.013,30.875,30.729,30.579,30.424,30.267,30.107,29.944,29.778,29.611,29.441,29.272,29.103,28.939,28.779,28.626,28.483,28.348,28.224,28.11,28.006,27.91,27.822,27.74,27.662,27.587,27.513,27.438,27.361,27.281,27.196,27.107,27.011,26.91,26.802,26.687,26.567,26.441,26.311,26.179,26.045,25.912,25.781,25.652,25.528,25.408,25.293,25.183,25.078,24.976,24.878,24.783,24.691,24.6,24.512,24.424,24.338,24.252,24.165,24.079,23.992,23.905,23.816,23.726,23.636,23.544,23.452,23.359,23.265,23.17,23.076,22.981,22.886,22.79,22.694,22.598,22.501,22.404,22.306,22.208,22.108,22.008,21.907,21.805,21.701,21.596,21.49,21.382,21.273,21.162,21.049,20.935,20.819,20.701,20.581,20.461,20.339,20.216,20.092,19.967,19.843,19.718,19.594,19.47,19.347,19.225,19.104,18.985,18.868,18.752,18.64,18.529,18.422,18.317,18.215,18.117,18.021,17.929,17.841,17.756,17.675,17.597,17.524,17.454,17.388,17.326,17.268,17.213,17.163,17.115,17.071,17.031,16.993,16.958,16.926,16.896,16.869,16.844,16.822,16.802,16.784,16.768,16.755,16.743,16.734,16.727,16.722,16.718,16.716,16.715,16.715,16.715,16.716,16.718,16.719,16.719,16.719,16.718,16.716,16.713,16.708,16.701,16.692,16.681,16.668,16.653,16.636,16.616,16.593,16.568,16.54,16.51,16.477,16.441,16.402,16.36,16.316,16.269,16.219,16.167,16.112,16.056,15.998,15.938,15.877,15.816,15.754,15.692,15.63,15.569,15.509,15.45,15.393,15.338,15.285,15.234,15.185,15.138,15.094,15.052,15.013,14.976,14.941,14.908,14.878,14.849,14.822,14.797,14.774,14.753,14.733,14.715,14.698,14.684,14.67,14.658,14.648,14.639,14.631,14.625,14.62,14.616,14.613,14.611,14.61,14.61,14.611,14.613,14.616,14.619,14.623,14.628,14.633,14.638,14.644,14.651,14.657,14.663,14.67,14.676,14.682,14.687,14.693,14.697,14.702,14.705,14.708,14.711,14.712,14.713,14.714,14.713,14.712,14.71,14.707,14.703,14.699,14.693,14.687,14.68,14.672,14.663,14.653,14.642,14.63,14.618,14.604,14.59,14.576,14.56,14.545,14.528,14.511,14.493,14.475,14.457,14.437,14.417,14.397,14.375,14.353,14.33,14.306,14.28,14.254,14.225,14.196,14.164,14.131,14.096,14.059,14.02,13.979,13.935,13.889,13.84,13.789,13.735,13.678,13.617,13.554,13.487,13.417,13.343,13.265,13.184,13.098,13.008,12.914,12.816,12.713,12.606,12.495,12.379,12.259,12.135
46,45.793,45.196,44.983,44.767,44.757,45,44.62,44.497,44.734,44.882,44.6,43.943,44,44.55,45,44.5,44,44,43.411,43.684,44.112,44,43,43,43.339,43.57,43,43,42.818,42.712,42.328,42,43,42.408,42.198,42.628,43,42.474,42.07,42,42,42.193,42,41.8,42,41.822,41.791,42.07,42,40,41,41.005,41,41.932,43,41.697,41,40.491,40.134,40,40.533,41,40.602,40.17,39.64,39.037,39.438,40,40.266,39.867,39.29,39,39,39.003,38.966,39,38.921,39,39.44,39.457,39.465,39.533,39.474,39.138,38.511,38.291,38.241,37.971,37.587,37.263,37.627,37.998,38.116,37.792,37.533,37.646,37.852,37.861,37.68,37.383,37.045,36.701,36.425,36.273,36.254,36.314,36.38,36.394,36.325,36.154,35.908,35.689,35.593,35.622,35.713,35.781,35.763,35.707,35.705,35.803,35.99,36.218,36.415,36.518,36.506,36.416,36.307,36.219,36.166,36.146,36.148,36.151,36.129,36.06,35.929,35.738,35.502,35.25,35.004,34.782,34.591,34.431,34.301,34.197,34.11,34.03,33.947,33.856,33.759,33.659,33.564,33.483,33.424,33.39,33.38,33.394,33.426,33.472,33.526,33.578,33.62,33.648,33.66,33.657,33.647,33.634,33.621,33.611,33.603,33.595,33.585,33.569,33.543,33.503,33.445,33.367,33.271,33.163,33.047,32.932,32.824,32.725,32.638,32.563,32.498,32.44,32.387,32.333,32.278,32.22,32.16,32.099,32.041,31.988,31.944,31.909,31.885,31.872,31.868,31.871,31.879,31.889,31.9,31.909,31.913,31.911,31.899,31.875,31.838,31.786,31.719,31.636,31.537,31.425,31.301,31.167,31.025,30.877,30.724,30.568,30.409,30.246,30.081,29.915,29.747,29.58,29.414,29.252,29.094,28.942,28.798,28.662,28.535,28.417,28.307,28.205,28.109,28.019,27.933,27.85,27.767,27.685,27.6,27.514,27.423,27.328,27.229,27.124,27.013,26.898,26.777,26.652,26.523,26.393,26.261,26.129,25.999,25.872,25.747,25.627,25.51,25.398,25.289,25.185,25.083,24.985,24.889,24.795,24.702,24.611,24.521,24.431,24.342,24.253,24.163,24.072,23.981,23.889,23.796,23.703,23.608,23.513,23.417,23.321,23.225,23.128,23.03,22.933,22.834,22.736,22.637,22.537,22.437,22.336,22.234,22.132,22.028,21.923,21.818,21.71,21.602,21.492,21.381,21.268,21.154,21.038,20.92,20.801,20.681,20.56,20.437,20.314,20.19,20.065,19.941,19.816,19.692,19.568,19.445,19.324,19.203,19.085,18.968,18.853,18.741,18.63,18.523,18.419,18.317,18.219,18.123,18.031,17.943,17.858,17.777,17.699,17.625,17.555,17.489,17.426,17.368,17.313,17.261,17.213,17.168,17.127,17.088,17.052,17.02,16.989,16.962,16.936,16.914,16.893,16.875,16.859,16.845,16.833,16.824,16.816,16.81,16.805,16.802,16.8,16.799,16.799,16.799,16.8,16.8,16.8,16.799,16.797,16.795,16.791,16.785,16.778,16.769,16.759,16.746,16.731,16.714,16.694,16.673,16.648,16.621,16.592,16.56,16.525,16.488,16.448,16.405,16.36,16.313,16.263,16.212,16.158,16.103,16.047,15.989,15.931,15.872,15.814,15.755,15.697,15.641,15.585,15.531,15.478,15.428,15.379,15.332,15.288,15.246,15.206,15.168,15.133,15.099,15.068,15.039,15.011,14.986,14.962,14.941,14.92,14.902,14.885,14.87,14.857,14.845,14.834,14.825,14.818,14.811,14.806,14.802,14.799,14.798,14.797,14.798,14.799,14.801,14.804,14.808,14.813,14.818,14.824,14.83,14.837,14.844,14.851,14.859,14.866,14.874,14.881,14.888,14.895,14.901,14.907,14.913,14.918,14.922,14.926,14.929,14.932,14.933,14.934,14.934,14.934,14.933,14.93,14.927,14.923,14.918,14.913,14.906,14.898,14.89,14.88,14.87,14.859,14.847,14.835,14.821,14.807,14.793,14.777,14.761,14.745,14.727,14.709,14.69,14.671,14.651,14.629,14.607,14.584,14.56,14.534,14.507,14.479,14.448,14.417,14.383,14.347,14.31,14.27,14.228,14.183,14.136,14.086,14.034,13.978,13.92,13.858,13.793,13.725,13.653,13.578,13.499,13.415,13.328,13.237,13.141,13.042,12.937,12.829,12.716,12.599,12.477,12.352
46,46,45,44.637,44.724,45,45,44.823,44.849,44.923,44.987,45,44,43.763,44.359,44.857,44.446,44,44,43,43.534,44,43.716,43,43,43.581,44,43.089,42.84,43,43.334,42.955,42.641,43,42.248,42,42.582,43,42,42,41.942,42,43.001,44,42,42,41.966,41.973,42.12,41.918,41,41.042,41,41,41.433,41.705,41,41.033,40.839,40.596,40.52,40.812,41,40.611,40,39.397,39,39.927,41,40.682,40,39.595,39.373,39.333,39.383,39.446,39.51,39.483,39.551,39.81,39.911,39.924,39.885,39.723,39.392,38.955,38.673,38.468,38.178,37.863,37.686,37.861,38.112,38.225,38.115,37.992,38.007,38.07,38.046,37.901,37.663,37.378,37.09,36.849,36.691,36.621,36.61,36.613,36.588,36.511,36.374,36.201,36.048,35.965,35.959,35.999,36.039,36.05,36.052,36.088,36.181,36.329,36.498,36.646,36.734,36.75,36.711,36.648,36.587,36.541,36.512,36.492,36.467,36.42,36.336,36.206,36.031,35.823,35.598,35.374,35.164,34.976,34.813,34.674,34.557,34.454,34.361,34.27,34.178,34.085,33.994,33.91,33.838,33.785,33.752,33.74,33.747,33.77,33.804,33.845,33.886,33.92,33.945,33.959,33.963,33.959,33.952,33.943,33.934,33.924,33.913,33.898,33.877,33.846,33.803,33.746,33.673,33.587,33.49,33.387,33.284,33.184,33.091,33.007,32.932,32.864,32.803,32.745,32.689,32.633,32.576,32.518,32.461,32.407,32.358,32.315,32.281,32.255,32.237,32.227,32.223,32.223,32.226,32.228,32.228,32.224,32.213,32.194,32.164,32.122,32.066,31.997,31.913,31.816,31.706,31.585,31.454,31.315,31.17,31.02,30.865,30.707,30.545,30.382,30.217,30.052,29.886,29.723,29.562,29.406,29.255,29.11,28.973,28.843,28.72,28.605,28.497,28.395,28.298,28.204,28.113,28.023,27.933,27.842,27.749,27.653,27.554,27.45,27.342,27.229,27.112,26.99,26.866,26.738,26.608,26.477,26.347,26.218,26.09,25.966,25.844,25.726,25.612,25.501,25.393,25.289,25.187,25.087,24.99,24.894,24.799,24.706,24.612,24.52,24.427,24.334,24.241,24.147,24.053,23.957,23.862,23.765,23.668,23.57,23.472,23.373,23.274,23.175,23.075,22.974,22.874,22.772,22.67,22.568,22.465,22.36,22.255,22.149,22.042,21.934,21.825,21.715,21.603,21.49,21.375,21.259,21.142,21.023,20.903,20.782,20.66,20.537,20.413,20.289,20.165,20.04,19.915,19.791,19.668,19.545,19.424,19.304,19.186,19.069,18.955,18.842,18.733,18.626,18.521,18.42,18.321,18.226,18.134,18.046,17.961,17.879,17.802,17.728,17.657,17.59,17.527,17.468,17.412,17.36,17.311,17.266,17.223,17.184,17.148,17.114,17.083,17.055,17.029,17.006,16.985,16.966,16.95,16.936,16.923,16.913,16.904,16.898,16.892,16.888,16.886,16.884,16.882,16.882,16.881,16.88,16.879,16.878,16.876,16.872,16.868,16.862,16.855,16.846,16.836,16.823,16.808,16.792,16.773,16.751,16.728,16.702,16.674,16.643,16.61,16.574,16.535,16.495,16.452,16.407,16.36,16.311,16.26,16.208,16.154,16.1,16.045,15.99,15.934,15.879,15.825,15.771,15.718,15.667,15.617,15.569,15.523,15.479,15.436,15.396,15.358,15.322,15.288,15.257,15.227,15.199,15.173,15.149,15.127,15.107,15.088,15.071,15.056,15.042,15.03,15.019,15.01,15.002,14.996,14.991,14.987,14.985,14.983,14.983,14.983,14.985,14.988,14.991,14.996,15.001,15.007,15.013,15.02,15.028,15.035,15.044,15.052,15.061,15.069,15.078,15.087,15.095,15.103,15.111,15.118,15.125,15.131,15.137,15.142,15.146,15.15,15.153,15.156,15.158,15.158,15.158,15.158,15.156,15.153,15.15,15.146,15.141,15.134,15.127,15.119,15.111,15.101,15.09,15.079,15.067,15.054,15.041,15.026,15.011,14.996,14.979,14.962,14.943,14.924,14.904,14.884,14.862,14.838,14.814,14.788,14.761,14.732,14.702,14.669,14.635,14.599,14.56,14.52,14.477,14.431,14.383,14.333,14.279,14.222,14.163,14.1,14.034,13.964,13.891,13.814,13.733,13.649,13.56,13.467,13.37,13.269,13.163,13.053,12.939,12.821,12.698,12.571
46.182,46,45,44.408,44.633,45,44.948,45,45.248,45.125,45,45.508,46,44,44.414,45,44.303,44,44.15,43.926,44.065,44,43.634,43,42.983,43.545,44,43,42.577,43,44,43.465,43,43.168,42,42,42.453,42.701,42,42,42,42.005,42.492,42.797,42,42.126,42.106,42,42.102,41.882,41.147,40.991,41,40.895,40.928,41,42,41.754,41.409,41.129,41.001,41.045,41,40.581,40,39.619,39.569,40.242,40.937,40.817,40.356,40.009,39.811,39.754,39.791,39.86,39.926,39.956,40.028,40.171,40.25,40.247,40.162,39.971,39.674,39.324,39.024,38.762,38.487,38.24,38.115,38.181,38.32,38.404,38.382,38.331,38.315,38.31,38.256,38.126,37.929,37.692,37.451,37.239,37.08,36.981,36.925,36.883,36.83,36.749,36.635,36.507,36.394,36.324,36.303,36.317,36.342,36.366,36.394,36.447,36.535,36.654,36.785,36.9,36.977,37.006,36.996,36.961,36.92,36.882,36.848,36.814,36.771,36.708,36.615,36.487,36.326,36.137,35.935,35.73,35.533,35.352,35.189,35.045,34.92,34.808,34.705,34.609,34.515,34.425,34.34,34.263,34.198,34.148,34.115,34.1,34.101,34.116,34.141,34.171,34.202,34.23,34.252,34.265,34.272,34.272,34.268,34.261,34.252,34.242,34.228,34.21,34.185,34.151,34.107,34.051,33.983,33.904,33.817,33.724,33.631,33.539,33.451,33.37,33.295,33.227,33.163,33.103,33.045,32.988,32.932,32.876,32.822,32.77,32.723,32.681,32.646,32.618,32.597,32.582,32.571,32.564,32.559,32.553,32.545,32.533,32.514,32.488,32.452,32.405,32.346,32.274,32.19,32.093,31.985,31.866,31.738,31.602,31.459,31.311,31.158,31.001,30.842,30.68,30.517,30.353,30.19,30.028,29.869,29.714,29.563,29.418,29.279,29.147,29.021,28.901,28.788,28.68,28.576,28.475,28.377,28.281,28.184,28.087,27.988,27.887,27.782,27.675,27.563,27.448,27.329,27.207,27.082,26.954,26.825,26.695,26.565,26.436,26.309,26.184,26.061,25.942,25.826,25.712,25.602,25.494,25.389,25.286,25.185,25.086,24.988,24.891,24.794,24.698,24.602,24.507,24.41,24.314,24.217,24.119,24.021,23.922,23.823,23.723,23.623,23.522,23.421,23.319,23.217,23.114,23.011,22.908,22.803,22.698,22.593,22.486,22.379,22.271,22.162,22.052,21.94,21.828,21.714,21.599,21.483,21.366,21.247,21.127,21.006,20.884,20.762,20.638,20.514,20.389,20.265,20.14,20.016,19.892,19.769,19.646,19.525,19.406,19.287,19.171,19.057,18.945,18.836,18.729,18.625,18.523,18.425,18.33,18.238,18.149,18.064,17.983,17.905,17.83,17.76,17.692,17.629,17.569,17.513,17.46,17.41,17.364,17.321,17.281,17.244,17.21,17.178,17.149,17.123,17.099,17.077,17.058,17.041,17.026,17.013,17.002,16.993,16.985,16.979,16.974,16.97,16.967,16.965,16.964,16.962,16.961,16.959,16.957,16.954,16.95,16.945,16.939,16.932,16.923,16.912,16.9,16.885,16.869,16.851,16.83,16.807,16.782,16.755,16.725,16.693,16.659,16.623,16.584,16.543,16.5,16.456,16.409,16.361,16.312,16.261,16.21,16.158,16.106,16.054,16.002,15.95,15.9,15.85,15.802,15.755,15.709,15.665,15.623,15.583,15.545,15.509,15.475,15.443,15.413,15.385,15.359,15.335,15.312,15.291,15.273,15.255,15.24,15.226,15.214,15.203,15.194,15.186,15.18,15.174,15.171,15.168,15.167,15.167,15.168,15.17,15.173,15.177,15.182,15.187,15.194,15.201,15.208,15.216,15.225,15.234,15.244,15.253,15.263,15.273,15.283,15.292,15.302,15.311,15.32,15.329,15.337,15.345,15.352,15.358,15.364,15.369,15.374,15.378,15.381,15.383,15.385,15.385,15.385,15.384,15.382,15.379,15.375,15.371,15.365,15.359,15.351,15.343,15.334,15.324,15.313,15.301,15.289,15.276,15.262,15.247,15.231,15.214,15.197,15.178,15.158,15.138,15.116,15.093,15.068,15.042,15.015,14.986,14.955,14.922,14.888,14.851,14.812,14.771,14.727,14.681,14.632,14.58,14.525,14.468,14.407,14.343,14.275,14.204,14.13,14.052,13.97,13.884,13.793,13.699,13.601,13.498,13.391,13.28,13.164,13.044,12.92,12.792
46.759,47.055,47,45,45.031,45,45.061,46,46,45.448,45,45,45.071,44,44.617,45,44,44.367,44.714,45,45.036,45,44,43,42.854,43.373,44,45,43,43,43.631,43.42,43,44,42.351,42.126,42.644,43.394,44,42.989,42,41.886,41.927,42,43,42.791,42.529,42.334,42.266,42,41,40.86,40.887,40.878,40.954,41.221,41.92,41.963,41.757,41.523,41.354,41.244,41.065,40.704,40.287,40.045,40.092,40.5,40.897,40.895,40.648,40.402,40.242,40.181,40.197,40.25,40.309,40.358,40.421,40.501,40.541,40.513,40.408,40.218,39.954,39.653,39.364,39.096,38.845,38.641,38.529,38.532,38.593,38.642,38.643,38.618,38.592,38.556,38.485,38.363,38.194,37.995,37.789,37.601,37.448,37.333,37.249,37.179,37.108,37.024,36.926,36.825,36.736,36.677,36.651,36.652,36.67,36.698,36.736,36.794,36.874,36.972,37.076,37.169,37.236,37.271,37.275,37.259,37.231,37.198,37.162,37.12,37.066,36.993,36.896,36.772,36.621,36.449,36.264,36.076,35.892,35.719,35.559,35.414,35.284,35.167,35.059,34.959,34.865,34.777,34.695,34.622,34.561,34.513,34.48,34.462,34.458,34.466,34.482,34.503,34.526,34.548,34.566,34.578,34.584,34.586,34.583,34.578,34.569,34.557,34.541,34.521,34.494,34.459,34.414,34.36,34.296,34.223,34.144,34.059,33.973,33.888,33.806,33.727,33.654,33.586,33.521,33.46,33.401,33.344,33.287,33.233,33.18,33.13,33.084,33.042,33.006,32.976,32.951,32.931,32.915,32.901,32.888,32.875,32.859,32.839,32.814,32.781,32.74,32.688,32.626,32.552,32.466,32.37,32.262,32.145,32.019,31.885,31.745,31.598,31.448,31.293,31.135,30.976,30.814,30.652,30.491,30.331,30.173,30.018,29.868,29.722,29.582,29.447,29.318,29.195,29.076,28.963,28.853,28.746,28.642,28.539,28.436,28.333,28.229,28.123,28.014,27.903,27.788,27.671,27.55,27.426,27.3,27.173,27.043,26.914,26.784,26.655,26.527,26.402,26.278,26.157,26.039,25.923,25.81,25.7,25.592,25.486,25.381,25.279,25.177,25.077,24.977,24.878,24.779,24.68,24.581,24.481,24.382,24.282,24.181,24.08,23.978,23.876,23.774,23.671,23.567,23.463,23.359,23.254,23.149,23.043,22.936,22.829,22.721,22.613,22.503,22.393,22.282,22.169,22.056,21.942,21.826,21.71,21.592,21.473,21.353,21.232,21.11,20.988,20.864,20.74,20.616,20.491,20.366,20.241,20.117,19.993,19.87,19.748,19.627,19.508,19.39,19.274,19.16,19.049,18.939,18.833,18.729,18.627,18.529,18.434,18.342,18.254,18.168,18.087,18.008,17.934,17.863,17.795,17.731,17.671,17.614,17.56,17.51,17.463,17.419,17.378,17.34,17.305,17.273,17.243,17.216,17.192,17.169,17.149,17.132,17.116,17.102,17.09,17.08,17.072,17.065,17.059,17.055,17.051,17.048,17.045,17.043,17.04,17.038,17.035,17.031,17.027,17.022,17.016,17.008,16.999,16.988,16.976,16.962,16.946,16.928,16.908,16.886,16.862,16.836,16.808,16.777,16.744,16.71,16.673,16.634,16.593,16.551,16.507,16.462,16.415,16.368,16.319,16.271,16.222,16.173,16.124,16.075,16.028,15.981,15.935,15.891,15.848,15.807,15.767,15.729,15.693,15.659,15.627,15.597,15.569,15.542,15.518,15.495,15.474,15.455,15.438,15.422,15.408,15.396,15.385,15.376,15.368,15.361,15.356,15.353,15.35,15.349,15.349,15.351,15.353,15.356,15.361,15.366,15.372,15.379,15.386,15.395,15.404,15.413,15.423,15.433,15.444,15.455,15.466,15.477,15.488,15.499,15.51,15.52,15.53,15.54,15.55,15.559,15.567,15.575,15.582,15.589,15.595,15.6,15.605,15.609,15.612,15.614,15.615,15.615,15.615,15.613,15.611,15.608,15.603,15.598,15.592,15.585,15.578,15.569,15.559,15.549,15.537,15.525,15.512,15.498,15.483,15.467,15.45,15.432,15.413,15.392,15.37,15.347,15.323,15.297,15.27,15.24,15.209,15.176,15.141,15.104,15.064,15.022,14.978,14.931,14.881,14.828,14.773,14.714,14.652,14.587,14.518,14.446,14.37,14.291,14.208,14.12,14.029,13.933,13.834,13.73,13.621,13.509,13.392,13.27,13.145,13.015
47.055,47.342,47.323,46.495,46.669,47,45,45.415,46,45.533,45,46,45.006,45,45.439,46,44,45,45.028,45.219,45.202,44.911,44,43.292,43,43.541,44.205,44.798,44,43.653,43.879,43.977,44,43.685,42,42.19,42.682,43.314,44,43.578,43,42.385,42.04,42,42.748,42.863,42.722,42.526,42.32,41.949,41.288,41.032,40.987,41.017,41.149,41.435,41.866,42.007,41.933,41.774,41.606,41.438,41.222,40.932,40.644,40.487,40.531,40.76,40.983,41.018,40.9,40.748,40.634,40.582,40.585,40.62,40.667,40.713,40.76,40.8,40.806,40.757,40.644,40.464,40.229,39.964,39.698,39.446,39.22,39.039,38.928,38.892,38.901,38.916,38.913,38.891,38.857,38.806,38.727,38.612,38.463,38.291,38.113,37.945,37.798,37.677,37.578,37.493,37.411,37.326,37.238,37.153,37.08,37.028,37.001,36.997,37.011,37.038,37.078,37.134,37.205,37.287,37.372,37.448,37.506,37.541,37.554,37.547,37.527,37.498,37.461,37.414,37.354,37.277,37.179,37.059,36.917,36.759,36.589,36.415,36.243,36.078,35.923,35.78,35.649,35.529,35.419,35.317,35.223,35.135,35.056,34.986,34.927,34.88,34.847,34.826,34.816,34.817,34.826,34.84,34.856,34.872,34.886,34.896,34.901,34.903,34.9,34.894,34.885,34.872,34.855,34.832,34.804,34.768,34.724,34.672,34.612,34.544,34.47,34.392,34.313,34.233,34.155,34.08,34.009,33.941,33.876,33.815,33.755,33.698,33.642,33.587,33.536,33.486,33.44,33.399,33.361,33.328,33.3,33.275,33.254,33.234,33.214,33.194,33.171,33.145,33.113,33.074,33.027,32.971,32.905,32.829,32.742,32.646,32.539,32.423,32.298,32.166,32.028,31.884,31.735,31.582,31.426,31.268,31.109,30.949,30.789,30.63,30.474,30.32,30.169,30.023,29.881,29.744,29.612,29.485,29.363,29.244,29.129,29.017,28.907,28.798,28.69,28.581,28.472,28.361,28.248,28.133,28.016,27.896,27.773,27.648,27.521,27.393,27.263,27.133,27.003,26.874,26.746,26.619,26.494,26.372,26.252,26.134,26.019,25.905,25.794,25.685,25.578,25.472,25.367,25.263,25.16,25.058,24.956,24.854,24.752,24.65,24.547,24.445,24.341,24.238,24.134,24.03,23.925,23.819,23.714,23.608,23.501,23.394,23.286,23.178,23.069,22.96,22.85,22.739,22.627,22.515,22.402,22.287,22.172,22.056,21.939,21.821,21.701,21.581,21.46,21.338,21.215,21.092,20.968,20.843,20.718,20.593,20.468,20.344,20.219,20.096,19.973,19.851,19.73,19.611,19.493,19.378,19.264,19.153,19.043,18.937,18.833,18.732,18.634,18.539,18.447,18.358,18.273,18.191,18.112,18.037,17.966,17.898,17.833,17.772,17.715,17.66,17.609,17.562,17.517,17.475,17.437,17.401,17.368,17.338,17.31,17.284,17.261,17.241,17.222,17.206,17.191,17.179,17.168,17.158,17.151,17.144,17.138,17.134,17.13,17.126,17.123,17.12,17.117,17.113,17.109,17.104,17.098,17.092,17.084,17.075,17.064,17.052,17.038,17.023,17.005,16.986,16.965,16.942,16.917,16.89,16.861,16.829,16.796,16.761,16.725,16.686,16.646,16.605,16.562,16.518,16.474,16.428,16.382,16.336,16.29,16.244,16.199,16.154,16.11,16.067,16.026,15.986,15.947,15.91,15.874,15.84,15.808,15.778,15.75,15.724,15.699,15.676,15.655,15.636,15.618,15.603,15.589,15.576,15.565,15.556,15.548,15.542,15.537,15.533,15.531,15.53,15.53,15.532,15.534,15.538,15.543,15.548,15.555,15.562,15.571,15.579,15.589,15.599,15.61,15.621,15.633,15.644,15.657,15.669,15.681,15.693,15.706,15.718,15.729,15.741,15.752,15.763,15.773,15.783,15.793,15.801,15.809,15.817,15.823,15.829,15.834,15.839,15.842,15.845,15.847,15.848,15.848,15.847,15.845,15.842,15.838,15.834,15.828,15.822,15.814,15.806,15.796,15.786,15.775,15.762,15.749,15.735,15.72,15.703,15.686,15.667,15.647,15.625,15.603,15.578,15.552,15.525,15.495,15.464,15.43,15.395,15.357,15.317,15.274,15.229,15.181,15.131,15.077,15.021,14.961,14.899,14.832,14.763,14.69,14.613,14.532,14.447,14.359,14.266,14.169,14.068,13.963,13.853,13.74,13.621,13.499,13.372,13.24
47.111,47.238,47.301,47.115,47.197,47.007,45.504,45,45.724,45.885,46,46,44,44,45.056,46.092,46,45.405,44.75,45,45.064,44.911,44.488,44.092,44,44.109,44.369,44.479,44,43.999,44.243,44.481,44.627,44.498,44,43.303,43.018,43,43.566,43.574,43.254,42.77,42.421,42.363,42.704,42.844,42.785,42.616,42.373,42.019,41.576,41.317,41.23,41.257,41.388,41.623,41.903,42.046,42.041,41.943,41.802,41.633,41.432,41.205,41.003,40.894,40.913,41.035,41.159,41.196,41.145,41.061,40.988,40.95,40.947,40.969,41.002,41.035,41.063,41.076,41.058,40.995,40.879,40.711,40.501,40.266,40.026,39.797,39.592,39.427,39.313,39.252,39.226,39.213,39.195,39.166,39.123,39.063,38.98,38.871,38.737,38.586,38.429,38.276,38.137,38.016,37.91,37.817,37.729,37.645,37.564,37.489,37.426,37.38,37.354,37.347,37.357,37.382,37.42,37.47,37.532,37.601,37.671,37.734,37.784,37.817,37.832,37.83,37.815,37.788,37.75,37.701,37.638,37.559,37.463,37.347,37.214,37.067,36.911,36.749,36.588,36.431,36.282,36.143,36.013,35.893,35.782,35.68,35.585,35.499,35.422,35.353,35.296,35.249,35.214,35.19,35.176,35.171,35.174,35.181,35.191,35.202,35.211,35.218,35.222,35.222,35.219,35.212,35.202,35.187,35.169,35.145,35.116,35.08,35.036,34.986,34.929,34.865,34.797,34.724,34.65,34.575,34.501,34.429,34.36,34.293,34.229,34.167,34.107,34.05,33.994,33.94,33.889,33.839,33.793,33.751,33.712,33.676,33.644,33.615,33.589,33.563,33.537,33.511,33.481,33.448,33.41,33.366,33.314,33.254,33.185,33.107,33.018,32.921,32.814,32.699,32.576,32.446,32.309,32.167,32.02,31.869,31.715,31.559,31.401,31.243,31.085,30.927,30.771,30.618,30.467,30.32,30.177,30.038,29.904,29.773,29.647,29.524,29.404,29.287,29.172,29.058,28.944,28.831,28.717,28.601,28.485,28.366,28.246,28.123,27.999,27.872,27.744,27.615,27.484,27.354,27.223,27.093,26.964,26.836,26.71,26.586,26.464,26.344,26.227,26.111,25.997,25.885,25.774,25.665,25.557,25.45,25.344,25.239,25.133,25.028,24.923,24.819,24.713,24.608,24.502,24.396,24.29,24.183,24.076,23.968,23.86,23.752,23.643,23.534,23.424,23.313,23.202,23.091,22.979,22.866,22.752,22.637,22.522,22.406,22.289,22.171,22.052,21.932,21.812,21.69,21.568,21.445,21.321,21.197,21.072,20.947,20.822,20.697,20.572,20.447,20.322,20.199,20.076,19.954,19.834,19.715,19.597,19.482,19.368,19.257,19.148,19.042,18.938,18.837,18.739,18.644,18.552,18.463,18.378,18.295,18.217,18.141,18.069,18.001,17.936,17.874,17.816,17.761,17.709,17.661,17.615,17.573,17.534,17.497,17.463,17.432,17.403,17.377,17.353,17.332,17.313,17.295,17.28,17.267,17.255,17.245,17.236,17.228,17.222,17.216,17.211,17.207,17.203,17.199,17.195,17.191,17.186,17.181,17.174,17.167,17.159,17.15,17.14,17.128,17.114,17.099,17.082,17.064,17.043,17.021,16.997,16.971,16.944,16.914,16.883,16.85,16.815,16.779,16.741,16.702,16.662,16.621,16.579,16.536,16.493,16.45,16.407,16.364,16.322,16.28,16.239,16.198,16.16,16.122,16.086,16.051,16.018,15.986,15.956,15.928,15.902,15.877,15.855,15.834,15.814,15.797,15.781,15.767,15.754,15.743,15.734,15.726,15.72,15.715,15.712,15.71,15.709,15.709,15.711,15.714,15.718,15.723,15.729,15.736,15.744,15.753,15.762,15.772,15.783,15.795,15.807,15.819,15.832,15.845,15.858,15.872,15.886,15.899,15.913,15.926,15.939,15.952,15.965,15.977,15.988,16,16.01,16.02,16.03,16.039,16.047,16.054,16.061,16.067,16.071,16.076,16.079,16.081,16.083,16.083,16.083,16.081,16.079,16.075,16.071,16.066,16.06,16.052,16.044,16.035,16.025,16.013,16.001,15.987,15.973,15.957,15.94,15.922,15.902,15.881,15.858,15.834,15.808,15.78,15.751,15.719,15.685,15.649,15.611,15.571,15.528,15.482,15.433,15.382,15.328,15.271,15.21,15.147,15.079,15.009,14.934,14.857,14.775,14.689,14.599,14.505,14.407,14.305,14.199,14.088,13.973,13.853,13.729,13.601,13.469
47,47,47.11,47.143,47.201,47,46,45.583,46,46.022,46,46.334,46,44.986,45,45.769,46,45.124,44,44.504,44.876,45,45,44.76,44.636,44.602,44.632,44.588,44.387,44.436,44.654,44.897,45.053,45,44.672,44.059,43.594,43.398,43.57,43.588,43.392,43.068,42.801,42.715,42.826,42.891,42.842,42.693,42.465,42.169,41.85,41.628,41.531,41.542,41.644,41.817,42.006,42.123,42.145,42.087,41.977,41.833,41.666,41.492,41.344,41.262,41.261,41.32,41.389,41.417,41.399,41.355,41.312,41.287,41.283,41.296,41.316,41.335,41.345,41.338,41.303,41.231,41.116,40.961,40.772,40.563,40.348,40.142,39.956,39.801,39.685,39.606,39.557,39.521,39.487,39.446,39.395,39.328,39.244,39.139,39.017,38.881,38.74,38.601,38.47,38.351,38.244,38.147,38.059,37.976,37.899,37.831,37.774,37.733,37.708,37.7,37.707,37.727,37.76,37.804,37.857,37.915,37.973,38.025,38.068,38.097,38.111,38.111,38.097,38.072,38.034,37.984,37.921,37.842,37.747,37.637,37.512,37.375,37.23,37.079,36.928,36.78,36.637,36.502,36.375,36.256,36.146,36.045,35.951,35.866,35.79,35.723,35.665,35.618,35.581,35.554,35.537,35.527,35.524,35.525,35.53,35.535,35.54,35.544,35.545,35.544,35.539,35.531,35.519,35.504,35.484,35.459,35.429,35.393,35.351,35.302,35.248,35.188,35.123,35.055,34.986,34.915,34.844,34.775,34.707,34.642,34.578,34.517,34.458,34.4,34.344,34.29,34.239,34.189,34.143,34.099,34.058,34.02,33.985,33.952,33.92,33.889,33.858,33.825,33.79,33.751,33.707,33.658,33.601,33.537,33.465,33.384,33.295,33.196,33.09,32.975,32.853,32.724,32.589,32.448,32.303,32.154,32.002,31.847,31.691,31.535,31.378,31.221,31.066,30.913,30.762,30.615,30.471,30.33,30.193,30.059,29.929,29.802,29.678,29.557,29.436,29.318,29.199,29.081,28.963,28.844,28.723,28.601,28.478,28.353,28.226,28.098,27.968,27.838,27.706,27.575,27.443,27.313,27.183,27.054,26.926,26.801,26.677,26.555,26.434,26.316,26.199,26.084,25.971,25.859,25.748,25.638,25.528,25.42,25.312,25.204,25.096,24.988,24.88,24.772,24.664,24.555,24.446,24.337,24.228,24.118,24.007,23.897,23.785,23.674,23.562,23.449,23.336,23.222,23.108,22.993,22.877,22.76,22.643,22.525,22.406,22.287,22.166,22.045,21.923,21.8,21.677,21.553,21.428,21.303,21.178,21.052,20.927,20.801,20.675,20.55,20.426,20.302,20.18,20.058,19.938,19.819,19.702,19.586,19.473,19.362,19.253,19.147,19.043,18.942,18.844,18.749,18.657,18.568,18.482,18.4,18.321,18.245,18.173,18.104,18.038,17.976,17.917,17.861,17.809,17.76,17.714,17.671,17.63,17.593,17.558,17.526,17.497,17.47,17.445,17.423,17.403,17.385,17.369,17.354,17.341,17.33,17.321,17.312,17.305,17.298,17.292,17.287,17.282,17.277,17.273,17.268,17.263,17.257,17.25,17.243,17.235,17.226,17.215,17.203,17.19,17.175,17.159,17.141,17.122,17.101,17.078,17.053,17.027,16.999,16.969,16.938,16.905,16.871,16.836,16.799,16.761,16.723,16.684,16.644,16.604,16.563,16.523,16.483,16.443,16.404,16.366,16.328,16.292,16.257,16.223,16.191,16.16,16.131,16.103,16.077,16.053,16.03,16.009,15.99,15.973,15.957,15.943,15.931,15.92,15.91,15.903,15.896,15.892,15.888,15.886,15.886,15.887,15.888,15.892,15.896,15.901,15.908,15.915,15.924,15.933,15.943,15.954,15.966,15.978,15.991,16.004,16.018,16.032,16.046,16.061,16.075,16.09,16.105,16.12,16.135,16.149,16.163,16.177,16.191,16.204,16.216,16.229,16.24,16.251,16.261,16.271,16.279,16.288,16.295,16.301,16.307,16.311,16.315,16.318,16.32,16.321,16.321,16.32,16.318,16.315,16.311,16.306,16.3,16.292,16.284,16.275,16.265,16.253,16.24,16.226,16.211,16.195,16.177,16.158,16.137,16.114,16.09,16.064,16.036,16.007,15.975,15.941,15.905,15.866,15.826,15.782,15.736,15.687,15.635,15.58,15.522,15.461,15.396,15.328,15.256,15.181,15.102,15.019,14.933,14.842,14.747,14.648,14.545,14.437,14.325,14.209,14.088,13.963,13.833,13.699
47,47.121,47,46.937,46.885,46.614,46,45.805,45.993,46.073,46.126,46.265,46,45.31,45,45.477,45.722,45.38,45,44.95,45.098,45.227,45.284,45.19,45.091,45.017,44.967,44.901,44.825,44.885,45.053,45.242,45.355,45.302,45.032,44.566,44.132,43.868,43.808,43.739,43.575,43.342,43.136,43.03,43.022,43.012,42.942,42.803,42.604,42.363,42.121,41.94,41.847,41.841,41.909,42.027,42.154,42.243,42.269,42.234,42.153,42.04,41.908,41.776,41.666,41.6,41.586,41.611,41.646,41.666,41.661,41.64,41.617,41.602,41.598,41.603,41.613,41.618,41.614,41.593,41.546,41.468,41.357,41.213,41.043,40.856,40.664,40.478,40.307,40.161,40.044,39.955,39.888,39.835,39.786,39.733,39.674,39.602,39.517,39.416,39.302,39.178,39.049,38.921,38.798,38.683,38.578,38.482,38.394,38.313,38.241,38.177,38.125,38.086,38.062,38.052,38.056,38.073,38.1,38.137,38.181,38.229,38.277,38.32,38.355,38.38,38.392,38.391,38.378,38.353,38.315,38.265,38.202,38.125,38.034,37.929,37.811,37.683,37.547,37.407,37.265,37.125,36.989,36.859,36.735,36.619,36.511,36.411,36.319,36.235,36.159,36.093,36.036,35.988,35.949,35.919,35.898,35.884,35.876,35.872,35.872,35.872,35.873,35.874,35.872,35.868,35.862,35.852,35.839,35.822,35.801,35.775,35.745,35.709,35.667,35.62,35.568,35.511,35.45,35.386,35.32,35.252,35.185,35.118,35.052,34.988,34.926,34.865,34.806,34.748,34.692,34.638,34.586,34.536,34.489,34.443,34.4,34.36,34.321,34.284,34.248,34.212,34.176,34.137,34.097,34.052,34.003,33.949,33.888,33.821,33.745,33.662,33.571,33.472,33.365,33.25,33.129,33.001,32.867,32.728,32.584,32.437,32.287,32.134,31.979,31.824,31.668,31.513,31.358,31.205,31.055,30.906,30.761,30.618,30.479,30.343,30.21,30.079,29.951,29.825,29.701,29.578,29.455,29.333,29.21,29.087,28.963,28.838,28.712,28.584,28.455,28.325,28.194,28.062,27.93,27.797,27.664,27.532,27.401,27.271,27.142,27.015,26.889,26.764,26.642,26.521,26.402,26.284,26.168,26.053,25.939,25.825,25.713,25.601,25.49,25.379,25.269,25.158,25.047,24.937,24.826,24.715,24.603,24.492,24.38,24.267,24.155,24.042,23.928,23.814,23.7,23.585,23.469,23.353,23.237,23.12,23.002,22.884,22.764,22.645,22.524,22.403,22.281,22.158,22.035,21.911,21.786,21.661,21.536,21.41,21.284,21.158,21.032,20.906,20.78,20.655,20.53,20.407,20.284,20.162,20.042,19.923,19.806,19.691,19.578,19.467,19.358,19.252,19.148,19.047,18.949,18.854,18.762,18.673,18.587,18.504,18.425,18.349,18.276,18.207,18.141,18.078,18.018,17.962,17.909,17.859,17.812,17.768,17.727,17.689,17.653,17.62,17.59,17.562,17.537,17.514,17.493,17.474,17.457,17.441,17.428,17.416,17.405,17.395,17.387,17.38,17.373,17.367,17.361,17.356,17.35,17.345,17.339,17.333,17.326,17.318,17.31,17.301,17.29,17.279,17.266,17.251,17.236,17.219,17.2,17.18,17.158,17.135,17.11,17.083,17.055,17.026,16.995,16.963,16.93,16.896,16.86,16.824,16.788,16.75,16.713,16.675,16.638,16.601,16.564,16.528,16.492,16.457,16.424,16.391,16.36,16.33,16.301,16.274,16.249,16.225,16.203,16.182,16.163,16.146,16.131,16.117,16.104,16.093,16.084,16.077,16.071,16.066,16.063,16.061,16.061,16.062,16.064,16.067,16.072,16.078,16.085,16.093,16.101,16.111,16.122,16.133,16.146,16.159,16.172,16.186,16.201,16.216,16.231,16.247,16.263,16.279,16.295,16.312,16.328,16.344,16.36,16.375,16.39,16.405,16.42,16.434,16.447,16.46,16.473,16.484,16.495,16.505,16.515,16.523,16.531,16.538,16.544,16.55,16.554,16.557,16.559,16.561,16.561,16.56,16.559,16.556,16.552,16.547,16.541,16.534,16.526,16.516,16.506,16.494,16.48,16.466,16.45,16.433,16.414,16.393,16.371,16.347,16.321,16.294,16.264,16.232,16.198,16.162,16.123,16.081,16.038,15.991,15.941,15.889,15.833,15.775,15.713,15.647,15.578,15.506,15.43,15.35,15.266,15.179,15.087,14.991,14.891,14.786,14.678,14.565,14.447,14.325,14.199,14.068,13.933
49,48.036,47,46.792,46.657,46.388,46,45.907,46,46.093,46.155,46.174,45.961,45.548,45.322,45.505,45.663,45.58,45.44,45.373,45.421,45.501,45.548,45.517,45.453,45.384,45.324,45.271,45.245,45.298,45.416,45.539,45.598,45.528,45.3,44.942,44.575,44.295,44.125,43.983,43.814,43.62,43.444,43.322,43.251,43.187,43.094,42.958,42.784,42.586,42.396,42.247,42.162,42.142,42.18,42.254,42.337,42.399,42.421,42.399,42.34,42.254,42.153,42.053,41.97,41.916,41.896,41.902,41.918,41.929,41.93,41.92,41.908,41.899,41.895,41.895,41.895,41.89,41.875,41.843,41.789,41.709,41.601,41.468,41.314,41.146,40.973,40.804,40.647,40.508,40.391,40.295,40.217,40.151,40.089,40.027,39.96,39.884,39.798,39.7,39.593,39.478,39.359,39.239,39.124,39.015,38.913,38.819,38.733,38.655,38.585,38.526,38.476,38.439,38.415,38.404,38.405,38.417,38.439,38.47,38.506,38.544,38.583,38.618,38.646,38.666,38.675,38.673,38.659,38.633,38.596,38.546,38.484,38.409,38.321,38.222,38.111,37.991,37.864,37.733,37.6,37.467,37.338,37.213,37.094,36.981,36.875,36.777,36.687,36.604,36.53,36.463,36.406,36.357,36.317,36.285,36.26,36.242,36.23,36.221,36.216,36.213,36.21,36.206,36.202,36.195,36.186,36.175,36.16,36.142,36.12,36.093,36.062,36.026,35.986,35.94,35.889,35.835,35.777,35.716,35.653,35.588,35.524,35.459,35.395,35.332,35.27,35.21,35.151,35.094,35.038,34.984,34.931,34.88,34.831,34.784,34.739,34.696,34.654,34.613,34.573,34.533,34.491,34.448,34.402,34.353,34.299,34.24,34.176,34.104,34.026,33.941,33.848,33.748,33.64,33.526,33.405,33.277,33.145,33.007,32.865,32.719,32.57,32.418,32.265,32.111,31.956,31.802,31.648,31.495,31.344,31.195,31.049,30.905,30.763,30.625,30.489,30.355,30.223,30.093,29.965,29.838,29.711,29.585,29.459,29.332,29.205,29.076,28.947,28.817,28.686,28.554,28.421,28.288,28.154,28.02,27.886,27.753,27.62,27.488,27.358,27.228,27.101,26.974,26.849,26.726,26.604,26.484,26.365,26.247,26.13,26.013,25.898,25.783,25.669,25.555,25.442,25.328,25.215,25.102,24.988,24.874,24.76,24.646,24.532,24.417,24.302,24.187,24.071,23.955,23.838,23.721,23.603,23.485,23.367,23.247,23.128,23.007,22.886,22.765,22.642,22.52,22.396,22.272,22.147,22.022,21.897,21.771,21.644,21.518,21.391,21.264,21.138,21.011,20.885,20.76,20.635,20.512,20.389,20.267,20.147,20.028,19.911,19.796,19.683,19.572,19.464,19.357,19.254,19.153,19.055,18.959,18.867,18.778,18.692,18.609,18.529,18.452,18.379,18.309,18.243,18.179,18.119,18.062,18.008,17.958,17.91,17.865,17.823,17.784,17.748,17.714,17.683,17.654,17.628,17.604,17.582,17.562,17.544,17.528,17.513,17.5,17.489,17.478,17.469,17.461,17.453,17.446,17.44,17.434,17.428,17.421,17.415,17.408,17.401,17.393,17.385,17.376,17.365,17.354,17.341,17.327,17.312,17.296,17.278,17.259,17.238,17.216,17.193,17.168,17.141,17.114,17.085,17.055,17.024,16.992,16.959,16.925,16.891,16.857,16.822,16.787,16.752,16.718,16.684,16.65,16.617,16.585,16.554,16.524,16.495,16.468,16.441,16.417,16.394,16.372,16.352,16.333,16.316,16.301,16.287,16.275,16.265,16.256,16.248,16.242,16.238,16.235,16.234,16.233,16.235,16.237,16.241,16.246,16.252,16.259,16.268,16.277,16.287,16.299,16.311,16.324,16.337,16.352,16.367,16.382,16.398,16.415,16.431,16.448,16.466,16.483,16.501,16.518,16.536,16.553,16.57,16.587,16.604,16.62,16.636,16.652,16.666,16.681,16.695,16.708,16.72,16.732,16.743,16.753,16.762,16.77,16.778,16.785,16.79,16.795,16.799,16.801,16.803,16.804,16.803,16.802,16.799,16.795,16.79,16.784,16.777,16.768,16.759,16.748,16.735,16.721,16.706,16.689,16.671,16.65,16.629,16.605,16.579,16.552,16.522,16.49,16.456,16.419,16.38,16.339,16.294,16.247,16.197,16.144,16.088,16.029,15.966,15.9,15.831,15.758,15.681,15.6,15.515,15.427,15.334,15.237,15.136,15.031,14.921,14.807,14.688,14.565,14.438,14.306,14.17
